1905

60.4099	-524.46	-150.146
-174.101	-300.802	22.9458
216.698	243.283	-44.006
86.6016	263.766	-50.7399
-212.119	-254.183	117.543
-122.696	540.648	153.558
190.125	-873.889	173.651
-44.4435	-799.078	31.5577
-198.453	874.708	-122.742
152.592	-661.57	-66.1684
-215.292	-113.061	-6.85858
141.896	-262.759	118.9
47.952	-914.223	-123.312
114.408	325.292	78.0696
-151.047	665.174	206.695
156.237	-330.306	-188.622
-143.717	-1.43003	-123.555
134.143	-500.045	77.2643
106.025	-854.505	-118.388
-161.275	34.1273	-117.463
125.823	618.191	-171.169
26.5671	611.924	188.281
-80.4111	873.47	75.595
-32.9554	-413.592	120.207
144.507	456.497	-29.0531
85.6693	229.49	194.177
104.309	40.4295	-199.324
-185.801	428.873	-77.4051
-48.2962	-942.046	180.62
125.827	742.359	-48.1582
-29.0906	-760.016	73.8423
-30.8413	640.363	-155.192
-14.9182	-952.092	-85.8388
-197.848	-330.521	-117.144
-145.573	-733.397	-120.37
38.2211	-755.035	12.0871
-207.944	481.627	162.935
2.3444	-953.014	184.427
67.5456	-194.13	140.043
23.5793	305.45	61.8897
164.31	384.113	102.457
73.0726	481.576	96.0052
91.2677	58.5459	-120.967
-150.067	345.671	35.2988
133.825	261.682	-132.386
70.3445	-705.06	38.1466
-95.5456	724.516	182.448
160.281	872.315	49.4902
190.28	416.312	91.09
120.588	-315.267	81.441
-202.228	588.012	0.00377655
189.593	660.445	173.867
-18.4744	-137.215	19.7408
-135.714	53.7118	211.259
-133.52	-470.731	142.812
208.821	766.806	-143.997
-188.219	-845.237	121.673
63.5327	-215.756	113.065
-187.202	-710.888	8.00689
173.25	-463.1	-83.7501
-129.421	-199.38	188.539
177.834	108.288	-112.675
140.542	-21.9893	144.577
23.6041	-726.99	-75.2797
62.9946	-358.355	-201.718
-209.239	-591.416	-69.7443
1.56695	847.379	-194.932
38.8855	447.286	-90.3284
-1.33285	-511.723	139.295
91.9408	-19.9873	1.70425
153.638	-301.221	180.464
148.987	-764.094	15.0573
57.5992	-308.193	18.0902
-195.131	-53.973	-162.255
72.1697	-548.958	46.9399
-34.5054	-562.928	118.634
-60.363	-434.609	131.826
-135.455	-699.592	54.1898
161.502	-579.475	58.4842
188.562	-376.545	52.0011
84.3649	963.906	-26.8093
184.998	-43.1701	133.872
99.0279	-477.675	-199.889
-28.4915	824.013	107.032
92.2518	847.889	32.0253
-70.0047	-581.436	-35.6382
68.9598	-418.289	-216.681
-57.2879	359.494	-178.496
-33.1549	447.774	85.0667
-119.856	732.123	32.6872
-7.2015	261.918	-14.5646
-144.141	479.878	-196.289
-74.3171	-40.6274	-197.11
-24.7755	687.459	58.8045
7.34911	733.605	-203.912
-124.622	643.457	-200.687
78.6836	577.796	-141.257
133.388	-956.756	45.6409
49.9521	228.799	187.59
156.671	-962.742	150.379
133.942	-45.1897	-93.1428
78.0494	111.331	-17.5978
139.522	-878.086	-175.359
185.264	949.971	125.661
-195.725	-731.609	-96.6792
201.214	567.456	-168.878
-8.34625	-506.085	168.581
-8.60622	-890.639	109.875
-57.5961	809.1	31.9176
171.204	641.207	17.3734
-124.428	-94.5383	59.6381
-5.82218	-326.906	-171.151
190.62	-148.28	122.64
-65.1638	-86.9391	-72.3734
77.1588	-376.559	14.2846
-206.159	-228.015	45.2718
-83.137	369.548	-68.3039
-66.1458	-259.866	-141.658
-23.2257	736.807	114.873
-18.8753	-177.698	-219.554
157.047	-42.1367	-48.0744
-207.866	278.991	-23.3038
-148.63	-816.837	-158.859
145.974	-235.915	-1.01099
-64.3474	-51.0678	-135.992
127.021	459.851	-169.798
168.258	-787.029	38.4462
186.964	-908.977	-13.8704
-75.1981	491.121	-144.04
-174.659	552.361	-206.757
-178.673	399.633	13.479
-2.86643	-722.13	89.9387
-95.4273	202.003	199.229
-109.669	-421.013	-206.191
187.389	911.131	-117.875
-62.7925	599.029	78.102
60.3146	225.411	-15.6702
-216.145	620.34	-3.58124
-116.633	872.337	191.835
216.171	460.706	153.441
208.91	-937.682	29.6646
-107.219	-676.729	-34.9449
-141.575	-207.94	159.756
41.4664	934.079	-15.9166
133.753	-665.006	-93.6295
-71.2831	943.289	205.333
-75.6392	-845.307	182.738
195.571	756.333	-194.297
-198.83	-953.961	10.1796
-97.0775	762.839	-188.558
-5.48721	331.243	30.5323
100.527	-874.226	197.639
193.369	-216.608	2.88995
5.39032	-549.956	-45.0935
-199.59	92.2142	-214.039
-62.4766	-98.3827	-120.457
-136.562	677.147	-204.932
-160.961	-65.9195	-106.668
-146.467	-843.176	-141.016
-134.501	-43.4519	62.7774
116.779	436.108	63.7747
69.0949	-87.0167	143.758
-34.7888	-139.487	47.3029
-139.573	286.723	86.2436
135.684	-550.437	-0.160635
133.518	15.9572	169.26
191.81	-95.3524	152.746
1.89667	870.289	-217.135
141.634	-885.68	158.711
192.521	132.795	173.759
-137.572	-585.412	107.314
-17.639	880.882	196.672
47.3024	-787.862	114.075
99.3929	-838.291	162.474
-74.6313	-276.89	-75.5252
-73.4462	-908.278	133.105
41.8006	-601.553	111.523
-54.5525	-82.0238	-184.058
130.559	-717.587	117.948
138.523	611.009	0.698898
202.569	-462.216	96.7513
95.7465	-150.106	-10.1194
61.7053	-828.562	-99.5527
2.69286	-639.551	-68.5601
-209.475	890.529	136.919
-159.407	518.713	-80.2387
98.1437	-268.209	40.7452
159.035	92.1466	78.4522
146.418	-589.76	27.4823
-94.6865	160.804	207.031
16.759	-521.895	-60.0475
-111.877	153.943	-125.04
-0.504458	217.942	111.668
22.6916	-522.303	-176.697
-216.404	726.802	101.743
-176.359	952.474	46.3187
-0.801704	-646.51	-186.26
69.9385	63.7058	133.495
-191.913	-503.184	155.432
81.1582	-493.524	-83.9652
107.687	812.935	53.9892
179.152	538.863	14.9832
-187.122	386.778	176.428
5.71841	681.952	-122.614
188.287	-773.189	-71.4011
-40.0272	-552.454	-78.783
145.884	370.755	-42.506
42.212	554.159	135.354
162.687	961.296	216.654
-106.018	-816.943	-126.779
131.618	103.861	-10.1747
142.138	716.076	-214.161
120.598	-869.574	-90.8917
77.1852	-777.08	74.744
14.232	566.426	-200.711
125.662	865.931	-6.78805
78.3781	479.954	217.074
-162.711	965.93	-56.0967
166.44	-191.241	63.1707
-92.8366	-739.729	-53.8972
-150.091	273.922	39.2638
-186.246	-864.235	-39.1137
142.605	-261.146	-196.023
72.7201	-432.433	59.9957
-120.559	458.513	204.647
88.779	302.21	163.674
81.552	-896.313	44.4944
-131.739	277.187	-24.533
-170.712	744.712	100.126
-109.542	-236.238	-131.433
-113.461	245.189	29.0117
187.135	561.457	215.657
79.2774	1.9335	-157.014
74.0503	-305.848	209.341
-138.232	-784.172	-146.045
74.4677	312.909	-48.9501
-174.833	966.068	-123.563
-203.935	-471.057	-212.347
95.1813	623.896	-212.955
198.292	-350.353	-61.8435
-211.094	-296.65	32.6882
191.186	133.378	135.596
-215.492	-744.434	13.3109
43.8302	79.5465	36.9418
-178.961	888.671	2.04605
-24.4668	-478.913	-21.4293
-6.35138	180.929	165.463
-97.7175	-576.197	163.058
193.178	-238.856	-127.586
25.4308	799.718	40.0359
85.5335	759.651	99.2508
134.191	-16.4945	-214.968
202.135	485.517	-147.741
-178.582	334.851	208.189
-212.324	-481.988	114.542
-204.148	-431.36	88.3527
-131.994	396.345	103.834
135.518	-288.513	-24.4405
190.515	410.075	14.2926
144.909	-390.925	102.36
44.5323	832.631	49.0627
-185.006	207.882	80.7979
212.916	252.637	-135.285
124.804	650.448	-119.943
-53.5818	948.145	-135.598
7.2895	456.684	-12.6907
115.767	759.167	-4.88164
130.068	122.269	80.0752
-190.352	346.156	122.797
39.3206	-824.24	-129.074
-212.736	328.523	-148.614
150.025	-907.104	-53.5113
-50.6848	-291.77	-19.962
-172.871	-359.779	151.824
-187.104	-254.46	87.3898
-165.192	71.0153	149.826
213.56	-782.059	94.5496
185.531	863.112	203.699
185.927	483.928	2.93779
176.396	-302.837	-148.311
152.658	114.119	-90.4932
-150.835	-551.078	83.8399
105.122	197.43	169.112
59.6433	-41.9753	160.759
-94.3683	550.48	-58.7154
129.511	57.8644	181.316
161.067	-211.358	122.892
120.662	309.614	-192.561
-49.6563	558.575	-82.5188
113.93	610.62	196.719
212.651	459.9	114.871
140.666	242.382	16.1186
152.451	-700.503	-31.9445
52.5676	-492.934	-119.749
111.078	-529.131	6.63424
20.9091	-937.013	22.3078
-84.553	-623.343	11.0188
-34.2276	629.112	121.589
-93.2282	501.212	179.654
-190.734	802.944	-176.602
98.4311	736.443	-134.147
217.914	-304.088	47.3899
65.5664	602.254	-16.3169
-46.5493	-949.332	-1.32497
-19.4493	400.392	-87.3446
82.7535	277.36	-128.005
-6.5577	498.667	-42.1476
43.2521	950.612	35.7752
58.4956	61.2118	16.2382
-120.614	-648.904	87.0709
156.138	541.467	-214.689
19.6633	47.7082	205.659
-150.65	-769.846	208.207
120.184	61.5299	-219.625
114.94	-848.737	-194.332
-189.346	-41.9507	204.79
-57.1767	268.074	32.2583
24.5585	95.8094	-33.7365
-165.026	732.626	43.4386
7.01872	-312.514	-205.536
133.285	773.241	53.1733
24.5576	662.229	25.736
61.3391	-340.279	203.616
145.554	476.601	-138.853
116.565	-165.159	37.5631
167.644	589.235	6.9979
-117.013	259.744	-205.517
8.16498	-814.301	-31.6772
95.9142	-225.928	-196.78
76.6351	-350.679	-65.4738
3.29242	676.949	69.5856
-10.5917	710.495	-77.2607
173.432	368.718	209.53
-132.693	-211.218	-188.31
56.848	-452.924	208.656
178.138	-535.763	67.2759
142.981	583.767	185.455
30.1918	-572.614	92.1929
-103.688	92.0382	170.848
-8.1901	-767.133	-86.7078
-199.544	-590.337	-141.166
109.395	74.4334	206.568
-176.49	-71.8644	133.975
-39.8346	-144.751	-215.826
100.161	-681.181	186.439
-53.563	-667.325	175.765
113.587	7.29714	-134.759
89.7199	-417.896	-92.5882
-80.8348	-512.546	112.506
-26.2219	-863.212	-142.202
8.80967	120.688	-154.951
168.378	-832.553	112.976
-96.0842	568.041	87.1973
-133.678	-221.396	-17.221
-87.5303	231.044	19.4285
161.415	-355.836	73.1598
-10.593	-538.592	-203.29
147.761	-508.083	-130.652
-207.906	-556.939	198.795
-184.36	627.852	-137.862
36.6091	551.1	-163.507
-146.212	826.933	130.451
-23.6715	-547.443	23.8522
-201.965	-439.781	-35.7449
81.3824	665.914	-191.964
-86.3516	-125.919	-57.9838
-147.206	-758.024	-36.6403
177.987	-734.001	-108.31
121.574	-637.084	-29.9297
-75.106	237.342	119.882
35.9517	785.211	-199.823
102.179	510.675	110.816
-101.667	621.191	-15.1958
-30.5336	-255.686	-187.028
-30.7566	963.498	-193.748
35.1851	-755.712	206.414
-12.527	494.048	-164.673
212.33	81.0111	179.201
-111.892	-829.01	41.9689
-106.445	792.824	146.243
-58.9964	325.634	-83.863
-48.0374	-890.676	-186.334
-60.2464	-626.671	-161.483
160.158	56.9724	-73.8376
-51.9408	125.267	177.361
65.256	916.24	-21.7554
23.1563	-536.453	-210.142
-6.42209	-766.638	-200.446
-205.339	444.301	-212.601
-165.551	-24.7906	163.413
45.6494	-834.513	-160.04
172.988	96.6273	4.26202
146.527	-522.855	-88.1253
160.479	-38.698	217.866
-28.5815	-78.6866	174.165
-33.6397	-757.011	-117.952
-130.505	601.335	11.9838
-139.446	184.861	-112.923
111.441	562.073	-67.8003
127.414	-386.689	151.765
112.079	293.28	27.132
-211.426	-684.058	-71.8599
-168.746	550.674	50.5579
198.047	-715.442	120.765
174.503	173.456	-90.4428
-90.3079	-736.347	18.2553
-122.028	607.284	88.4916
-137.245	-435.843	-125.34
-143.318	-91.0208	117.055
127.216	603.407	-136.577
189.068	541.894	-202.088
35.177	966.479	182.488
-206.448	343.43	-101.346
144.471	-167.741	119.439
-217.445	-311.928	-88.2985
-0.0322056	-726.349	-139.498
-214.716	-143.73	-14.1679
87.4422	-43.3803	45.4203
169.13	10.3459	80.2653
100.085	-715.547	212.202
132.206	154.273	181.421
68.6757	-688.816	143.438
121.289	-352.723	-83.4571
148.802	354.109	199.92
178.967	146.925	-176.18
-165.364	-950.923	66.1805
-92.419	513.285	-93.3567
128.781	-894.845	-146.822
-89.1898	432.697	112.502
-71.2752	-28.4802	76.7605
-31.5244	-288.174	66.8619
-208.201	-663.813	183.506
-121.739	-693.101	-140.104
4.96978	-280.145	-28.8302
-86.155	-946.675	-24.3005
197.528	186.809	-21.8467
165.278	927.344	137.101
-165.362	263.889	-109.137
13.199	-968.813	-20.672
24.5956	182.333	-140.008
91.381	407.318	206.408
-188.626	-76.437	58.2746
115.265	700.578	-98.4488
96.7848	-479.09	44.599
133.084	-143.593	-19.6186
130.538	-482.493	-74.649
118.845	-665.238	25.8896
146.912	-441.497	81.1119
-147.454	931.712	-213.745
60.2111	870.088	-77.2226
30.7826	-6.30992	-117.94
203.314	-771.133	-108.996
-87.5606	-860.89	-105.746
-125.912	-422.703	161.664
92.1677	294.573	-14.4092
-18.0737	-585.743	-104.271
73.0507	742.273	208.304
-55.0562	385.554	0.133884
-34.1759	221.203	-184.971
94.8984	-761.388	-162.012
120.638	-374.824	45.6883
-59.3664	5.33438	140.013
-212.1	119.672	84.9692
148.742	-407.565	-95.2552
64.4944	-756.983	33.0034
-185.032	508.868	40.3166
-136.778	284.454	-207.403
21.8145	-267.013	87.01
196.601	484.482	-184.309
177.542	-947.191	-190.545
109.323	105.176	44.5173
96.0337	-351.499	55.5448
-90.0592	-720.948	-109.559
-123.593	-186.74	-93.7297
179.3	691.018	56.2805
-37.0199	366.75	-86.9482
-1.93934	693.15	-175.885
-140.749	-415.127	26.4047
-203.761	-845.637	16.2236
-172.576	-805.619	-192.757
-142.384	-785.605	-22.7102
166.72	182.157	172.652
-65.6997	748.374	-160.078
156.691	598.216	-60.7355
-37.6804	-19.4178	140.292
175.376	805.689	61.0614
-182.016	494.614	110.239
6.53836	415.774	34.4725
195.677	899.914	215.132
-139.405	-601.404	176.968
-167.706	195.303	-93.7584
92.8466	491.791	13.4845
19.8769	489.481	76.7097
-194.016	-722.572	-46.5426
116.23	-403.357	23.6613
-29.2247	132.637	-185.04
-84.0654	613.125	-207.863
-170.008	-910.549	-149.912
-94.8102	-251.143	-8.23569
-137.862	262.121	117.031
213.738	-615.834	-119.376
-139.577	152.165	-70.4398
-159.392	146.051	65.493
-170.877	162.282	-94.2819
-185.778	755.462	-7.33447
43.8973	-48.382	-175.029
-171.985	636.32	207.172
131.264	-452.065	-171.366
-37.1453	-296.524	95.435
-129.773	902.634	-65.4248
196.642	-594.591	63.7131
-155.168	-8.68184	11.2144
-100.675	-722.601	61.8779
122.812	173.197	-134.338
166.431	-409.25	194.818
4.98402	811.761	-100.28
-169.206	93.1518	-111.09
158.955	-731.634	74.5424
161.308	459.156	-187.26
-68.0138	-347.471	116.28
46.9224	544.539	-28.0692
82.0204	51.2029	-79.5046
111.026	518.773	-139.975
-154.17	764.7	6.53818
165.218	-677.579	134.737
211.894	-552.782	144.659
-55.9301	419.472	-101.364
11.3187	587.669	-101.584
153.473	32.5811	-212.128
26.7253	-559.132	176.529
23.5346	-697.641	-13.6718
-178.115	574.648	211.077
103.603	4.25622	152.863
-75.2757	-178.258	150.135
-104.009	-692.242	45.3726
-13.4407	-713.915	215.889
-173.583	878.757	-99.1928
-173.797	-661.135	63.9905
-66.6105	-726.367	169.12
-19.4053	-71.0634	12.8814
158.711	406.404	201.622
139.931	451.916	80.2583
-214.368	954.475	111.621
127.333	-555.86	-98.2085
-124.759	307.871	-67.5123
55.4933	371.584	107.318
181.941	-810.866	-70.7269
-61.5652	569.627	101.371
153.049	-619.08	-200.167
-52.786	567.168	13.3253
-133.032	774.984	102.169
166.295	784.124	17.6322
93.4635	-876.644	-204.745
-173.214	230.467	-115.241
92.5657	-611.122	-24.084
-65.7026	-348.243	12.0735
128.789	604.639	152.121
192.578	615.659	-93.6439
38.3693	-954.246	-149.868
135.713	-616.057	-114.11
103.104	346.833	152.05
102.959	-58.031	21.9056
-170.306	-72.5131	-135.588
6.97358	-788.276	-15.4946
102.822	86.6159	93.1499
-165.589	220.841	113.756
95.1695	8.791	-198.34
-93.8782	525.835	104.831
121.921	-494.454	23.9797
-112.057	654.573	-66.8598
12.8351	-906.09	78.7177
-186.468	-244.785	-192.747
-76.9315	598.967	116.79
-84.7003	-798.172	50.4396
9.60516	-962.798	-181.544
156.922	-706.178	-195.919
-13.0456	87.5624	-172.236
41.3709	291.927	191.612
68.3641	649.589	153.427
-0.529137	-905.086	-202.129
-137.77	-392.163	-192.376
-165.267	-471.526	-85.9428
-14.842	239.99	-125.621
-86.8667	-210.242	-87.6206
108.79	844.241	-152.497
80.4194	-476.121	198.523
121.69	177.06	32.0593
61.9123	866.161	-26.3883
-43.5537	-413.786	-46.5535
124.103	16.7124	-167.978
130.304	730.167	110.26
152.683	36.5102	-117.471
-122.195	863.681	-198.238
-29.2478	-417.301	204.669
-126.465	-34.2898	125.579
61.6111	-708.434	-109.447
114.091	-510.067	-88.4421
43.1545	715.18	-48.1795
-62.1445	-670.431	-5.47391
-200.699	660.842	164.869
135.712	464.613	177.815
-135.329	-782.826	-180.135
-200.6	510.072	-93.9273
12.7349	736.246	126.524
-100.732	-176.447	-25.3081
-86.0859	-93.1546	-171.696
164.835	-734.114	219.483
32.1587	22.5747	171.379
119.012	232.764	-148.789
-151.345	-828.128	149.222
-150.626	753.04	205.277
177.068	365.013	-17.0729
43.2064	-607.287	-135.618
-193.292	-547.206	-151.918
41.305	532.202	94.2194
105.384	-925.028	99.4634
184.606	7.97775	158.006
196.703	851.538	-209.535
-82.3734	-780.648	217.692
150.353	-474.379	50.1831
-32.7705	467.033	-216.264
103.477	-521.79	198.178
-206.41	186.393	6.02268
-114.264	689.12	-83.1685
99.6743	-730.965	-218.97
2.72129	524.591	-155.902
-87.1162	-371.001	42.009
-62.2491	-875.735	215.072
93.9772	765.501	-212.936
-125.482	372.289	-47.8145
-122.723	217.721	53.3044
143.65	77.2593	-195.397
186.705	-230.131	-38.0894
89.2935	-209.05	22.2594
-63.9735	368.186	132.256
-56.8103	732.938	-98.9839
34.3741	39.2892	-185.487
44.303	830.432	152.585
101.146	284.451	-209.957
155.32	-635.981	54.1588
-143.2	349.547	-56.5151
172.728	412.451	119.256
73.9647	-686.74	-32.3024
51.0233	514.323	154.036
-165.924	702.382	-164.492
214.074	-567.661	-218.131
-44.5412	-52.3724	68.5351
216.797	-159.685	58.7503
23.6626	30.4532	-101.736
28.8943	-408.549	-141.513
-8.78765	65.26	136.471
-175.471	746.111	69.7576
202.515	134.198	208.612
146.037	136.692	116.548
-49.9908	-591.745	-182.966
-202.722	113.34	-172.056
64.543	-250.095	-154.08
-91.5783	-570.655	-141.433
79.6574	668.097	-62.622
156.544	903.459	168.855
211.784	-811.038	143.847
26.4653	408.471	81.795
12.045	901.527	214.634
-170.391	-689.367	-38.2212
213.514	-936.176	-193.162
-206.372	353.112	-31.9705
-207.284	870.923	17.2659
101.171	-960.955	-214.683
-213.088	-928.042	-0.670941
117.914	-252.506	-105.903
-69.0831	320.753	68.4153
-54.3769	-760.017	17.0751
96.2472	-248.75	165.297
-51.2842	841.804	4.96312
57.631	-81.2113	-174.345
-49.2577	-879.478	79.8232
135.931	192.097	152.304
211.969	-448.5	-111.363
-114.098	-637.818	-213.918
-82.9647	123.91	210.35
-94.1574	966.765	132.054
-78.2766	969.982	219.535
-38.488	500.354	176.882
116.433	700.534	202.493
-149.132	-619.877	219.256
-158.706	-571.949	211.399
-27.0831	-433.581	95.9772
-24.2053	-553.861	-131.492
-64.9969	-121.228	-24.1039
-144.748	-654.388	-62.7139
115.286	-740.627	-102.76
-11.7724	-193.475	-106.904
-155.206	-118.547	-20.45
14.8859	43.3831	-136.094
150.396	46.7131	82.7626
9.78974	180.019	207.272
209.154	910.177	8.41297
190.799	136.845	31.0121
-8.82321	423.046	-185.261
100.619	-679.763	66.361
-26.1178	-412.477	-206.492
210.241	690.884	-42.7081
90.0655	747.488	-26.4334
135.182	568.117	158.991
-54.3669	-282.065	176.653
-128.883	-415.005	-57.8588
170.225	536.689	-36.8445
-130.713	-867.264	102.813
18.2906	-796.218	-171.636
105.316	-133.374	156.8
-216.309	-704.094	-156.608
66.7639	750.602	57.0024
-35.6392	411.152	-156.797
202.529	781.074	6.60742
170.913	255.045	-217.077
123.775	-208.826	-16.8568
-64.9644	-441.668	-21.7242
196.936	824.056	219.1
85.2208	-896.005	-19.2319
184.687	78.8343	-197.186
209.22	118.22	-183.075
-21.1387	-352.593	-153.636
19.1256	-413.912	136.464
-212.972	-261.735	193.88
-118.507	720.297	-168.991
178.478	270.802	64.3181
172.051	-167.223	-136.678
-19.4546	401.538	13.9958
10.1167	-863.761	-184.847
119.345	-433.982	-217.254
102.827	830.954	82.6007
-37.0399	-518.764	-113.133
-123.416	-419.997	217.963
-132.109	370.043	66.344
210.428	927.679	-182.624
-191.583	-159.337	-182.034
18.1729	311.912	115.578
-211.084	97.4372	-10.1492
-216.774	272.088	66.6636
-36.9165	-462.594	196.465
174.697	-111.931	-205.58
15.4441	405.918	152.374
-13.2459	225.438	-10.123
-12.0071	321.861	-137.644
205.987	861.212	-76.4573
-141.429	64.6814	-116.061
-66.2584	-186.858	18.6531
28.725	715.722	-11.2841
-7.2851	-386.795	-138.386
25.6478	582.659	-64.76
-217.294	424.638	55.7372
51.0012	693.627	-120.96
-82.5786	-30.9951	189.173
-81.2606	153.848	89.0078
109.871	960.542	-196.346
-45.2669	334.298	8.62981
176.539	-705.144	47.1093
-95.0655	108.975	-158.62
-167.962	-481.033	78.3547
-199.585	254.118	-192.713
31.3206	731.474	183.948
185.466	-440.02	181.671
-209.344	-593.006	21.1207
-198.957	469.183	85.7914
-54.7131	-537.794	210.527
113.796	344.643	-181.439
-125.925	159.805	143.898
-94.566	-2.19177	-48.7417
-189.259	-277.033	-160.757
-123.636	135.941	-146.377
187.906	1.65008	-212.143
-103.207	409.561	-159.994
-152.883	341.411	-120.511
-80.8201	425.865	140.823
5.20228	211.865	208.055
-6.49139	-566.23	211.393
-82.7108	709.518	-25.0263
-183.856	534.823	-127.441
-182.159	-389.706	-171.375
-95.5342	550.508	-150.159
135.995	-869.756	102.139
-157.518	570.764	-74.2681
-60.9039	279.356	118.757
78.2896	266.807	186.806
-96.6606	333.546	-185.79
-113.928	789.116	-132.795
-194.566	44.5864	201.851
8.77251	-773.054	187.549
39.6599	505.16	-187.3
-38.63	169.874	211.923
-197.561	-610.43	96.6545
122.243	-79.5665	35.67
192.601	-582.36	219.718
-173.227	572.101	-129.976
205.479	778.386	105.331
-204.556	-172.424	51.1835
111.729	-702.768	-25.3496
-158.799	893.446	46.4816
124.811	-28.6581	-141.859
216.892	824.303	118.186
203.994	168.146	104.751
-177.871	547.243	133.108
8.52517	756.638	209.997
-189.571	-853.127	-135.433
-19.8433	552.598	120.163
66.3305	940.447	-178.191
97.5822	-117.379	193.43
-157.64	623.492	-68.0537
42.8422	-216.579	-146.658
194.756	-491.434	-77.1802
-67.8228	-65.6136	151.53
-192.358	-954.065	184.383
-31.3632	-0.168304	182.669
-58.9055	-967.282	106.783
-215.174	-511.235	27.4365
-140.788	-929.662	99.4718
-46.8969	-177.699	-49.6393
-219.009	-40.0781	-51.613
69.8914	182.769	189.93
-156.919	475.024	-93.683
185.346	-608.901	-0.288513
61.5781	490.284	-210.097
-116.835	-780.167	48.1135
141.232	-422.261	-12.817
-190.036	-525.138	-123.863
-178.528	-521.317	-157.241
129.205	960.974	-105.396
202.491	-621.973	108.701
-61.5227	93.4664	44.2503
-199.893	699.646	4.15775
-166.478	673.267	-28.222
149.332	491.61	211.262
8.17683	-31.5749	-130.41
-63.0309	939.197	-176.743
199.818	868.951	-113.59
-52.7858	98.6612	-92.9496
63.7501	-427.259	-146.939
-34.794	-180.293	64.978
125.748	702.233	-182.972
-0.711368	-79.1652	-101.707
-22.8423	-152.075	164.439
-141.789	-661.386	40.0185
-13.0079	280.135	13.079
-79.5386	762.71	158.479
-197.093	749.046	-80.3401
-163.261	-557.127	-72.2837
129.539	966.134	138.945
186.776	-626.845	-168.408
142.785	796.433	-80.6967
-150.808	-834.777	-3.88304
-18.5296	707.597	84.2765
186.646	-390.957	-123.246
107.955	802.538	163.901
-7.89792	161.261	9.43988
211.071	825.358	166.918
-191.474	-279.949	-72.7099
103.012	-787.249	-2.73827
86.6389	-81.7418	80.2293
-139.1	445.224	13.7506
-198.672	-936.715	-52.1829
118.767	804.141	-219.767
-181.115	206.458	-194.157
3.66716	-281.967	-105.857
-178.785	9.37101	-147.354
-35.924	-352.893	45.0689
-46.449	-698.252	-128.988
-165.947	-421.668	-76.7654
-106.341	928.02	-107.598
173.707	-720.948	138.484
206.279	214.046	172.521
-17.2689	-485.977	-79.2499
33.6884	938.617	157.089
-70.9617	309.067	-18.0166
100.322	-290.867	-167.21
208.976	-592.884	-93.5011
132.785	-371.458	-155.256
162.455	-759.641	-150.215
-73.4373	871.913	138.747
180.099	-808.406	71.2237
-33.9163	766.577	-46.3873
-116.604	-624.794	-155.121
31.6575	-176.489	-125.478
-214.289	-196.704	24.4723
215.748	-372.427	-125.994
-13.2567	-775.111	-131.622
60.4478	178.464	66.05
169.971	-255.406	-18.3173
-83.6685	133.169	-211.059
-94.1043	-535.231	-183.52
-126.856	286.26	14.3835
190.551	-798.136	-113.213
-163.26	-444.612	28.9566
33.234	94.2266	12.9422
22.9784	483.754	140.966
190.652	-360.613	196.55
-98.5806	-306.718	-39.5764
-184.547	387.966	213.553
-27.554	-457.827	-185.81
-24.7789	583.859	46.7378
219.503	-396.026	130.598
100.418	-430.645	-66.1696
207.119	-537.201	3.44212
16.001	34.0391	-211.706
-168.981	928.824	217.901
5.461	15.8332	215.93
-177.197	111.274	143.464
16.2736	702.614	211.804
74.2729	-958.974	12.0288
178.815	-525.167	144.656
-120.533	478.352	117.879
118.095	-283.874	89.273
-47.6621	-931.709	-87.9164
182.173	-555.412	188.478
-170.019	-685.966	45.5018
-115.143	920.335	-143.913
-81.3099	-674.895	109.836
-39.1476	637.414	-186.355
208.957	733.734	101.557
-147.181	754.083	127.254
-127.707	494.143	11.1854
121.136	-822.547	119.696
199.662	525.196	-162.271
-32.0974	218.273	-145.564
-164.035	-176.041	-48.3625
-43.2874	109.485	-21.7663
215.787	815.995	-93.323
-54.7424	-940.606	-211.777
-149.342	615.718	-131.885
-20.7051	-578.72	14.7026
-209.391	66.5366	155.459
-128.062	681.413	-148.177
-133.013	-31.041	90.3075
-18.5569	323.585	102.313
93.7872	-848.316	-14.6893
-132.701	127.122	-173.745
43.1243	755.673	-215.138
186.973	834.738	-104.558
15.1556	-4.77142	98.9409
54.5275	627.632	106.806
98.3829	117.334	-98.4807
-35.158	512.18	42.1388
114.089	-960.269	134.345
37.2242	964.99	-163.262
-148.584	15.0461	-192.203
-96.3597	-146.716	116.225
-22.7917	-377.373	-24.3602
-131.123	826.954	16.9032
13.7428	-680.905	-156.071
196.321	813.139	37.0465
-96.9696	-450.292	-25.2011
167.63	189.839	0.314424
41.7681	-905.92	45.3456
-55.5114	-247.393	-64.5847
-84.8674	906.801	14.7005
-127.93	89.9283	-195.143
195.443	525.741	-59.9825
188.537	-56.2658	19.3809
203.876	-271.447	109.116
42.2738	592.806	-195.351
-154.392	-395.277	-155.51
-204.383	721.718	64.0632
124.549	-453.243	30.3367
143.76	-322.022	40.2811
82.3883	370.7	-76.9778
-187.287	571.405	-60.3879
-90.35	933.35	-44.3123
52.7116	355.145	204.863
-163.013	845.831	163.62
160.687	909.386	-83.0001
-83.651	324.977	216.977
74.3003	-522.059	113.337
89.3788	-802.889	-188.52
144.471	708.434	165.662
-215.787	816.316	198.028
45.9742	-543.396	140.549
138.936	621.192	210.248
85.9823	-797.672	-150.809
147.098	-543.422	173.065
-129.376	-712.829	128.172
19.4546	150.225	-210.684
188.459	518.203	113.399
146.334	922.839	5.66058
72.4259	410.848	-33.0261
-199.24	245.138	125.095
-211.84	474.8	210.158
188.077	318.867	80.9811
100.197	412.604	-50.73
117.368	915.96	-197.503
68.3489	-438.87	-118.177
-158.539	489.768	-131.438
96.3804	654.695	-217.851
186.247	-357.845	-168.615
55.1365	311.975	86.0418
-59.9546	-775.3	-106.562
210.857	675.373	-214.849
-73.0372	783.498	38.7307
-99.0997	-214.779	-44.0108
51.0944	-277.707	-141.471
-43.3261	917.902	76.7111
117.125	386.437	-136.328
65.6278	-925.083	-160.095
46.0996	-704.229	170.712
-20.007	414.339	151.487
40.7325	-595.151	-189.887
-44.1802	-67.542	104.407
-48.2588	892.083	183.626
62.5588	-681.163	196.427
123.374	747.067	-198.3
-109.556	-428.827	-82.3946
-76.8643	675.365	-215.256
-38.235	568.918	-166.417
-110.148	186.145	-3.51264
-8.17078	-702.617	-210.298
-207.983	410.846	-174.147
-140.551	100.696	123.923
-215.699	-815.841	162.164
-57.5912	177.289	-0.561775
-99.1835	-231.488	153.5
97.6401	-934.888	162.618
-115.128	368.688	17.1875
-213.877	-763.804	-209.145
217.487	-860.195	-1.99233
-200.358	592.901	-144.315
60.017	-810.574	153.405
72.6224	-968.085	69.2887
50.605	-969.177	123.844
-150.117	-906.727	193.016
199.181	200.114	-100.517
91.5663	-661.349	158.338
-23.2409	-435.713	-49.47
-118.871	-719.329	3.6717
202.406	-958.431	83.0645
-146.19	174.736	65.4196
197.698	814.327	4.97401
24.358	-167.319	106.409
-68.177	-787.622	-207.562
-69.7397	582.925	-129.406
71.4408	-242.807	-190.139
-160.959	-170.943	-90.1883
-47.4997	-901.316	-218.097
-84.7467	25.4815	-129.987
205.115	812.874	-192.614
-84.505	-493.447	179.38
-42.8992	76.7136	-120.935
165.653	-786.208	150.525
-62.1236	-151.588	-40.5194
100.241	99.8012	-34.7087
-117.502	3.88076	-166.737
-177.761	720.385	17.8833
216.934	-95.4681	-95.404
172.991	165.926	106.106
61.01	-579.325	-119.875
-114.139	-297.082	91.5559
14.5712	-800.889	44.902
136.094	-840.164	-2.22031
-100.455	33.5602	189.706
-75.2613	860.578	-101.708
-215.134	628.974	-119.068
211.821	20.5199	-203.593
-120.102	-227.736	62.8233
-194.45	673.272	-136.68
-59.2982	-509.491	-75.0904
98.3693	512.001	144.808
-167.448	652.302	85.7336
212.934	63.2898	-206.386
132.732	21.4846	-52.9872
215.345	-616.596	162.448
21.3124	-448.03	-179.284
27.4561	-658.85	-70.0887
57.0574	-208.641	-103.733
51.7975	-667.635	66.1327
213.929	-715.673	92.5853
38.7036	-102.527	168.703
-105.769	-242.113	-174.909
-75.7562	58.809	-49.3547
-90.8915	-719.591	132.892
-212.033	-899.232	-180.915
-104.167	-202.038	-151.002
137.853	551.526	-35.6606
159.793	116.954	-16.696
-212.736	-565.394	64.6174
157.432	885.006	-149.298
-141.695	101.746	73.286
214.724	382.997	144.654
-187.885	916.955	19.9047
-122.536	744.49	79.1524
-190.01	749.962	182.528
-86.3942	-58.1828	219.927
104.892	-885.979	146.461
-197.5	-723.141	198.507
59.8487	796.334	-18.2092
134.521	-857.596	197.404
-83.5055	160.695	178.766
31.9186	-678.118	-128.229
-135.52	-499.686	64.8521
-94.1902	39.6669	45.7034
96.0208	-32.4078	72.4521
177.888	-659.524	53.0849
-165.499	-625.441	-175.804
138.793	-248.562	92.2443
-55.0971	87.0495	7.09176
-211.183	294.083	-213.3
-181.346	158.412	193.995
203.764	922.67	69.8473
182.854	-374.857	-78.6096
-168.709	-215.255	-98.4696
-192.421	-166.74	199.747
-54.1678	-648.301	-38.1943
114.761	-104.41	148.608
75.539	-499.278	-196.487
164.642	-162.298	-10.2612
-177.722	-393.154	65.4807
59.3214	-585.82	25.897
54.0538	-150.888	192.431
148.296	594.633	94.1188
-101.67	453.557	64.5928
121.177	-159.475	101.44
194.302	-775.343	-24.1079
61.094	-805.01	63.332
-97.3623	-917.855	219.63
-196.266	-671.298	138.608
-39.3955	-864.275	184.75
57.32	-517.711	80.2237
-198.504	-898.563	-66.0322
-194.19	-543.829	163.272
18.5319	619.936	-69.722
140.447	-736.554	-56.6241
-121.554	-171.252	-159.825
6.18371	-399.351	0.741384
-56.92	152.775	-97.0343
152.113	736.275	-138.6
-76.7895	-123.193	60.2911
-117.931	85.0864	-120.962
-136.696	430.4	-73.9471
-216.558	-436.394	54.7107
215.92	-401.538	-94.5292
31.2452	-245.056	-58.6831
-129.854	849.495	86.1773
62.4962	-659.305	130.543
128.796	513.039	140.285
37.167	925.53	99.4822
-148.958	401.354	-40.1713
61.6082	-675.763	94.55
-218.778	-719.734	-213.481
-89.3932	932.629	134.737
135.238	-182.46	152.791
-194.692	435.892	-162.999
168.956	183.632	45.2473
-34.1671	-766.586	194.09
-43.2614	43.6934	66.1865
-94.7873	608.701	40.9666
138.55	-227.019	-74.9692
-168.365	282.579	-68.2878
152.447	-903.951	184.762
-83.2871	-851.296	98.0261
-96.2447	-49.5302	-169.341
129.219	502.449	46.2601
27.9126	-258.456	-27.2592
38.0006	352.89	173.128
-139.423	227.64	-103.745
30.7751	-55.2976	52.712
150.29	-128.124	212.181
-44.3562	-362.584	-202.821
217.076	268.375	86.4538
-182.068	-130.381	-134.716
124.195	557.574	-154.71
-133.936	61.4802	-178.815
-211.546	-643.477	-141.975
57.147	-411.269	212.43
-214.977	575.415	184.769
-44.4941	-748.897	147.679
3.67388	829.537	-168.858
69.8198	-760.254	-0.80215
138.018	-949.901	0.0216365
-215.826	-249.875	26.7767
-22.5777	548.551	-183.121
59.2926	-312.737	91.9092
-28.7746	-694.273	-163.712
-154.74	543.085	-153.391
-15.7112	919.417	-92.6838
-182.733	353.829	-162.705
-72.6032	116.934	22.5792
-122.47	38.4154	-38.2796
-3.44236	-832.564	-204.992
-212.062	-620.798	-217.961
-101.481	410.043	168.43
159.915	825.34	-172.96
77.0695	511.479	-110.357
201.446	-403.846	86.5868
130.219	293.045	63.3926
214.053	-822.056	-205.971
67.1895	962.985	-205.145
-169.181	160.16	99.785
37.5566	-688.169	213.122
-103.77	-528.075	170.799
-84.7617	-667.726	-127.808
-52.2417	-926.969	-174.058
201.337	-198.828	-39.2636
-17.6199	574.89	-216.875
-119.997	86.0916	101.718
33.6598	-302.072	44.2333
-10.8176	-44.8991	184.161
207.722	704.143	-91.3616
-125.711	413.581	-10.5194
-206.828	224.89	-75.648
128.783	-340.452	59.9751
-210.025	595.746	-38.4688
-143.975	-511.013	128.829
165.961	-956.61	-43.3715
-218.101	347.553	33.2181
201.056	-198.846	172.727
-183.881	-171.051	-215.551
-178.887	226.776	39.7837
-217.854	-865.537	-63.1109
219.277	38.5486	-144.415
124.652	38.3717	-6.49268
-96.2344	5.38954	121.732
-9.25395	-201.725	100.298
91.8514	-210.61	130.41
-2.37833	-302.152	12.0682
163.99	706.082	201.1
15.5214	29.7821	132.271
2.08927	586.405	116.481
-41.759	-166.753	20.8064
-66.7856	-186.843	-25.9994
-155.562	534.958	206.072
-5.69939	-224.75	-216.973
121.055	-29.4114	180.018
-194.222	394.377	140.361
-116.407	-261.539	128.908
-8.69004	-624.463	-151.994
-50.9113	-190.037	-84.5778
-32.1129	-849.937	211.696
108.774	730.801	-85.5372
15.3602	701.865	-57.5552
100.001	894.645	-131.176
-54.9359	390.495	55.8902
38.3561	76.2212	-54.3518
111.764	-635.145	-114.03
-18.4933	255.335	-189.461
-96.5353	-533.787	-78.4603
215.889	398.161	107.764
100.814	686.255	-50.3048
106.885	928.146	-137.777
-73.2551	-868.959	29.2299
-1.10645	710.373	173.09
-158.634	-362.158	-63.4855
166.628	-914.873	-130.78
-76.8512	-472.001	-173.944
-213.159	292.74	198.254
-160.766	-539.308	156.823
64.2585	-86.5143	177.699
-40.1838	183.155	-57.3095
200.594	349.118	89.1218
78.4412	749.489	-73.5104
158.305	-147.523	-160.515
74.693	-522.556	-90.9512
-126.16	600.904	-50.8478
65.8311	481.945	154.048
193.448	770.954	-80.2846
91.512	235.671	59.7794
3.89656	49.2172	-186.67
51.8129	-419.365	111.222
160.593	160.498	209.125
-201.796	572.339	-197.161
-217.279	-259.645	-114.497
185.383	884.008	-179.322
-101.168	-456.358	66.4158
-112.423	-610.1	150.583
-191.276	-110.372	-211.216
187.428	-515.703	-215.83
-171.122	529.386	-0.729464
-146.392	915.25	-134.373
-200.307	498.132	-214.15
77.2833	-733.111	-102.182
102.838	-967.114	57.2881
-217.752	684.429	37.0491
131.434	-56.6416	-213.082
-136.498	-83.1281	170.337
-100.832	-41.615	39.8654
210.346	-24.3526	-65.5292
170.379	-44.8677	51.4536
-143.596	-871.654	-97.4957
-73.7578	-397.482	191.997
104.087	-142.685	-107.301
-167.876	-270.775	170.889
-151.743	565.046	8.3627
-97.8479	641.821	205.018
-30.1052	116.043	-211.222
-216.612	-23.6986	-110.717
111.76	-799.91	-44.355
148.329	-543.812	215.332
-59.6429	-219.024	136.092
8.34513	-635.247	71.8072
-92.4089	135.496	157.029
-137.936	-902.04	-214.885
97.4796	590.075	-182.295
119.174	304.547	175.714
113.121	-539.629	-128.64
166.928	224.52	219.903
-174.442	934.393	-0.653487
85.3217	895.506	16.8348
-53.6804	199.876	30.7609
53.2289	-52.6245	-206.043
-95.3147	-657.975	199.25
-65.5955	-375.474	-106.626
-174.593	-367.604	-135.761
55.4343	-162.036	99.248
111.532	640.951	-93.212
-111.617	-126.767	77.3718
91.4236	-475.572	157.383
43.6167	-696.585	117.27
-188.822	163.636	-39.1966
-153.991	-194.421	217.491
209.151	-581.86	37.2035
-104.665	-516.628	-103.77
-93.653	940.129	-167.817
214.162	-927.249	-111.808
-120.355	-204.158	18.3927
-187.073	-594.624	-90.1918
-53.5452	492.979	-93.4456
66.8149	789.956	131.203
-18.957	-878.232	-207.123
95.6669	121.229	-56.3208
38.6071	645.895	-19.5681
40.2586	759.448	29.8914
196.375	-694.459	-3.4789
-9.79501	482.778	81.499
-93.547	256.352	-180.929
-64.7617	221.445	-210.521
74.5489	-259.368	-42.3077
-183.211	772.491	99.2101
-83.4106	-148.604	187.402
-154.776	-240.2	-175.514
184.68	-183.821	120.042
120.102	281.76	-75.9627
73.937	723.169	109.166
9.85278	742.094	60.8681
152.482	886.905	-115.526
-197.829	148.1	-115.794
-150.209	242.802	184.963
-31.9878	342.489	-192.713
-53.8704	523.649	0.887096
-111.526	-313.333	-157.495
81.2625	844.98	-73.3116
217.453	-197.406	-127.335
95.4697	-521.816	37.9471
84.7244	-266.986	-136.081
-70.6501	-127.438	133.561
-28.9785	-828.304	-135.179
129.106	-704.029	-174.331
85.8134	-115.963	-108.927
58.6881	429.207	105.696
-109.83	246.409	-147.79
-21.2133	410.708	95.0581
-15.1973	40.5481	-22.3544
1.12885	813.554	171.265
-117.87	-180.926	41.0029
14.9428	789.478	-75.5872
86.0973	-735.5	192.1
-4.83623	-445.387	58.3734
125.238	-32.4874	-3.69162
198.55	-876.587	-122.997
61.9409	801.707	162.365
6.46118	-399.252	60.2974
21.4588	-719.695	-35.7741
-11.0327	-25.7181	155.926
87.4779	639.322	-3.69671
-211.655	-813.759	-160.957
-70.8351	366.971	25.4214
90.0279	98.3999	210.214
124.003	797.39	208.457
-168.607	-559.784	112.879
102.312	-945.075	-25.3253
49.5065	-342.884	-101.366
49.6967	235.916	-42.9082
-37.0681	-392.317	15.3874
-10.1632	-929.217	59.8402
-198.669	-411.157	-104.64
-92.8479	-96.5615	-105.265
197.517	-563.457	-162.842
123.687	-152.028	-75.1939
133.519	-565.612	-59.4414
81.3954	-906.386	-183.091
-93.7591	138.885	-181.769
-120.606	917.718	201.685
-195.671	46.7588	-135.332
-132.844	-663.983	8.29427
-39.6471	-832.569	-79.1774
-121.993	-328.991	-20.5472
-51.1366	-490.255	63.5963
89.6365	597.556	-84.3821
-96.0525	-615.672	218.406
-24.7396	-547.824	68.4764
-125.534	874.118	-88.0639
83.0857	-825.593	-165.037
103.245	-23.7916	-172.102
-214.655	963.173	-59.1105
176.759	-709.569	-129.087
-60.1397	344.948	108.223
-146.983	-610.683	9.26742
50.5908	-621.365	-2.64205
119.472	-694.95	-211.58
-72.1358	-336.009	-103.237
-194.869	-493.529	71.1783
65.7552	-38.3902	-67.0746
-93.5593	179.857	31.7424
116.46	650.875	146.207
61.0312	-790.898	178.573
-147.072	-140.94	-173.737
113.675	243.116	162.42
-18.9374	-664.648	-67.7537
65.447	-324.672	-32.7808
-16.4356	851.45	81.0819
205.263	-552.585	-26.5187
-125.487	-101.477	-9.02978
93.0053	116.449	176.271
-218.613	519.933	29.8082
-100.25	635.19	-117.691
18.3182	692.895	103.787
-61.5447	-768.643	87.6821
58.6108	96.7366	-219.437
-134.747	-278.772	164.538
174.579	354.657	-106.389
71.3854	517.86	-186.835
-97.4657	831.711	82.352
-75.8818	-900.225	-36.5071
-183.649	772.454	-49.8382
-136.835	644.066	146.964
-60.5726	61.4875	30.1145
-85.7218	948.229	173.869
134.736	846.643	160.846
182.184	726.905	0.466115
41.9326	-887.781	-182.071
129.369	-304.843	-179.404
213.725	-379.86	-21.5438
42.9705	562.537	216.392
-144.195	-222.144	89.1063
-152.78	-616.683	38.6674
-12.9416	-11.0058	75.5434
-150.196	-68.869	-18.1925
58.7282	897.785	2.15746
145.917	83.9356	-43.0213
-105.691	-361.514	-75.1887
104.799	-452.964	-92.2244
70.1934	565.754	11.9159
-219.333	723.148	-68.5514
137.732	958.656	42.2323
23.6361	242.873	-13.959
124.256	-674.13	-135.607
-64.4176	305.676	99.5389
-128.193	530.355	-88.2856
-39.5603	-287.264	-211.497
123.564	951.749	-10.3062
-174.264	-411.602	168.551
-90.6052	-924.272	-128.744
-74.7837	-571.196	-71.5825
-219.704	530.704	172.688
-137.469	-362.702	-102.355
191.15	-796.401	-153.839
-22.822	-233.812	-69.7613
219.013	880.453	84.9512
-133.866	955.501	39.4682
-21.8891	474.211	26.3001
69.3978	515.097	0.397928
31.8621	-298.376	146.654
23.3022	962.44	-123.205
55.7367	601	175.645
156.28	-211.519	-49.9957
216.202	950.741	126.167
134.53	-509.921	-208.844
-217.733	908.986	-39.6817
34.7102	748.066	144.314
9.4077	925.077	33.5516
-196.558	-47.7168	20.5896
162.573	107.19	-155.034
213.64	258.083	-199.789
155.416	559.834	52.8066
-188.498	641.558	-173.903
1.9112	-165.855	134.689
-72.1248	-189.598	-149.083
55.333	285.067	124.456
0.849094	-926.726	144.057
-119.038	-846.684	-69.2219
129.414	-453.485	-48.7159
123.806	-727.017	89.0545
55.4132	-112.108	121.486
-172.956	-224.149	-35.6385
210.473	-618.358	-51.7758
-63.6243	-786.281	-177.507
-89.4962	-855.387	68.16
-216.11	-405.406	54.7266
208.227	-133.187	208.818
-217.493	-717.896	-71.0717
0.280881	149.078	107.325
-187.04	543.301	77.8533
140.835	-905.329	96.0515
33.21	-589.264	169.632
-21.6451	679.836	-79.9477
1.0171	348.041	194.436
-6.37655	-128.105	-132.449
-121.569	-535.557	142.498
46.9072	-892.796	77.7384
-67.7543	761.181	-207.208
-115.982	-487.346	88.0029
-65.4942	-558.032	106.152
79.6189	83.4606	37.8924
-157.709	691.807	97.3085
-20.9363	-446.487	18.1373
191.629	-654.565	-12.903
91.2526	-35.9533	206.123
-110.481	-948.215	219.652
173.776	-166.348	22.2239
-33.2378	29.2187	9.79128
53.628	-702.123	-63.137
-1.13455	19.0361	-178.058
-77.9091	-652.215	-59.2476
-147.838	-88.1006	33.6581
59.2943	810.592	219.377
-171.272	-940.246	118.99
214.91	264.516	55.8958
-152.33	-703.928	-121.027
-79.0694	-394.929	110.518
-216.352	-687.007	23.6389
209.822	355.602	119.967
-124.471	321.332	-100.377
-26.383	795.314	-86.3952
116.843	445.528	-215.355
-131.399	287.854	-108.762
-192.683	-347.994	-31.0013
57.8865	-564.395	-163.08
-5.34453	530.599	-55.6906
-177.239	-891.412	84.3381
108.152	-101.397	-169.75
-206.262	-71.4522	-84.9926
121.563	109.005	-65.4941
-144.114	316.378	22.2704
168.872	476.236	-158.078
-182.723	-287.438	72.355
19.4288	-167.6	216.171
154.738	962.518	-214.282
-77.691	-161.756	-187.17
10.708	-783.496	-63.808
215.351	-901.751	58.8461
60.0643	-959.923	-101.718
172.603	772.45	-36.7474
-9.369	-621.575	115.429
-9.89872	491.745	165.932
-64.0158	-315.941	-75.3565
-183.114	-325.813	206.378
67.9523	637.031	-219.729
-179.874	37.5511	153.288
26.8734	-382.15	-165.57
99.3911	-189.116	198.544
79.0829	-940.584	-64.2153
114.504	-637.044	166.646
15.6642	657.439	-94.1455
147.564	-295.894	-139.146
-215.575	16.1712	103.172
-74.6926	-0.267344	-101.209
164.486	-132.42	170.8
-208.238	215.372	-17.4778
-59.9472	-460.849	83.3391
-95.5584	-547.255	-107.655
-168.107	804.145	69.5553
157.758	242.653	144.316
215.587	-591.996	-2.43918
-145.532	59.8514	-65.4917
-144.576	936.674	80.727
154.6	543.429	-149.8
-25.2517	867.51	-60.4116
15.2956	-752.554	-130.65
3.46139	-413.617	-158.696
113.494	331.621	-91.5752
-18.1721	420.346	-40.866
-164.69	862.431	18.0123
87.5331	51.7019	-33.4106
-37.422	139.91	103.101
45.6579	-456.97	-11.7607
-4.76113	940.085	115.37
-62.8841	324.418	-204.044
64.3629	152.621	156.949
-102.45	-806.896	111.266
217.143	-346.666	114.414
119.135	54.6101	89.8599
-129.6	-549.693	-99.7598
-91.7543	-651.791	-21.0904
-13.9252	-675.987	200.238
-210.02	-674.654	-179.422
195.019	-964.269	-137.124
15.9303	290.016	-186.012
-101.091	26.401	5.08405
161.515	375.509	38.4669
106.017	64.4119	153.611
-43.0907	-538.245	-163.208
-188.937	-949.981	-80.8233
80.7373	50.4589	-219.454
-107.759	-592.473	-210.21
-219.561	-605.902	130.733
-17.4789	-494.599	-145.267
65.2385	64.0615	100.056
16.0478	569.598	140.037
-16.9184	517.964	-85.3058
27.4009	-618.349	140.807
152.739	-14.9349	30.0235
153.621	49.2127	-3.3765
-177.939	-127.991	39.9593
177.308	238.888	20.6993
-208.08	333.24	145.905
-216.911	-58.4225	121.504
125.173	-227.591	-218.705
-83.3807	336.905	89.4717
133.032	206.069	217.853
120.414	-807.916	-75.7444
115.119	-711.891	154.804
68.708	-185.292	-83.3031
-165.252	-592.666	134.316
9.67266	920.69	-213.514
129.827	-521.794	51.7248
-97.9099	741.152	-61.9172
-218.801	310.182	-70.758
96.8616	18.8402	184.035
105.4	-820.383	-116.424
70.4293	27.0375	-136.705
9.97138	967.867	42.9047
155.79	-48.4492	187.315
163.101	731.841	-186.728
90.8342	156.979	-110.144
2.3428	130.088	-29.7293
157.972	-873.122	127.783
65.9434	-448.663	22.2298
-67.3403	-121.576	-97.4487
140.3	-634.961	132.069
-215.518	774.387	-125.796
7.06244	-695.741	-78.2406
-158.291	-433.885	67.9231
-91.1701	-258.246	-111.498
19.3449	-501.542	-138.041
-154.096	-389.727	-29.9951
70.8252	749.408	-153.022
210.972	-786.781	-46.5018
69.6804	-110.803	90.3415
34.2624	292.081	145.892
-126.649	313.722	75.6183
152.2	799.311	128.349
159.175	291.429	141.288
219.312	541.541	-218.532
209.192	789.674	-218.492
37.4136	393.63	-160.699
104.362	-458.13	98.4436
-37.6528	-106.439	-199.291
-57.5329	-453.945	-115.834
164.457	-71.7621	97.4324
22.3119	-648.172	196.412
-12.1356	958.082	208.482
142.393	359.672	-5.57619
110.943	479.787	-87.6048
66.8631	2.67239	48.2412
217.249	682.633	-4.34813
-88.9221	392.754	80.6894
-219.684	-718.961	106.951
-23.8584	-443.509	-127.239
-129.656	834.253	216.937
-122.129	-626.66	-2.29831
-120.696	675.493	-7.83978
-78.4868	614.233	-130.761
102.249	-623.127	-160.654
204.471	133.202	77.1958
157.178	291.241	216.776
-177.023	156.518	161.35
-88.7793	679.357	204.707
111.314	547	85.4462
197.635	-476.515	-151.402
-54.7344	805.507	-77.4866
180.178	-620.813	78.5993
-178.703	810.71	202.713
137.481	-950.401	-203.076
66.1537	-748.751	140.542
-102.963	743.279	207.201
-75.3151	-687.645	202.948
80.9598	-539.562	210.696
65.2199	-152.767	-207.335
195.947	-17.7934	7.05908
-212.826	-757.489	-130.214
5.17303	-108.676	-190.656
132.238	449.548	18.2792
148.744	127.472	38.7725
156.866	26.0428	32.5336
-123.057	-290.155	-45.107
87.1757	-778.986	196.326
197.036	-580.476	-137.168
164.656	-18.7716	120.456
-105.357	-547.419	87.8169
-206.097	197.551	-146.342
-194.73	-853.179	-202.345
179.758	-200.081	214.403
202.301	-747.483	-178.77
-210.253	55.3547	-83.7462
129.083	113.354	-157.275
53.9171	917.714	-59.4676
-144.22	177.937	-53.7713
73.1693	-360.866	-34.5915
-137.175	938.479	153.17
-50.7904	311.719	208.673
184.584	40.7424	-181.822
157.837	-681.778	-163.148
-4.52675	-271.063	-63.714
-182.729	-525.388	133.31
173.623	754.373	124.92
-107.719	443.271	-137.23
156.277	-222.211	157.293
219.909	906.267	-46.7464
-182.794	799.625	157.586
201.141	6.65456	209.659
-2.94494	250.765	188.304
92.8857	83.265	-138.548
125.319	-779.869	-22.0296
45.0968	895.741	-84.3262
66.2279	419.648	-210.864
178.669	345.428	-190.085
10.2303	212.286	-101.072
-49.7243	-581.934	-3.00852
-27.3821	-904.175	-68.0831
145.372	-623.045	-14.458
-131.456	117.319	209.103
187.337	-968.882	-64.9748
-122.523	434.723	136.669
-209.98	-722.595	-8.05891
-136.665	-132.332	-91.6428
-173.817	-228.23	199.902
66.9364	-214.844	65.7994
207.593	-615.592	209.854
213.985	-258.834	144.004
217.213	-37.7183	76.0057
-30.1486	676.255	171.381
205.368	-867.965	-45.4855
-39.3691	683.363	107.346
140.052	726.045	-25.7374
-94.8081	-8.23874	-18.3726
-96.1313	235.751	215.22
-44.2745	-887.858	-113.805
77.5923	448.364	-75.6558
111.473	8.89958	57.0758
195.458	223.098	-30.8784
33.7679	488.059	16.4904
67.305	-845.315	-133.198
-121.552	-48.9967	179.432
204.293	-62.454	192.292
-76.2956	242.61	89.3142
121.142	828.667	-183.653
153.782	-702.002	187.719
148.653	537.415	83.3882
67.353	924.873	55.0891
196.979	-96.2483	45.9147
105.769	-879.418	61.2231
-102.067	-188.514	110.626
-192.795	73.7156	-65.2397
-4.08756	660.003	-16.1353
1.24136	884.921	-139.948
-93.3639	808.481	48.5391
128.107	739.691	20.4477
-133.898	-919.164	-76.545
46.3205	-666.021	172.878
-32.2294	314.963	-43.1151
-130.102	-559.29	122.243
-39.8452	-686.126	-197.847
35.4953	-133.694	16.4012
19.6689	-615.447	-160.49
119.189	-743.288	-178.62
96.521	12.5904	-41.6035
-105.972	-643.237	140.723
67.7041	-647.728	-64.0849
210.521	166.089	183.161
-164.148	-807.738	-52.3913
158.193	-12.008	-46.1901
-140.953	-578.724	0.984867
-156.654	37.3167	194.849
186.445	-2.68014	-97.1092
-154.92	-583.342	62.1124
-147.836	768.481	-153.674
-53.3949	-162.095	-143.283
143.419	400.836	-173.752
26.1694	679.481	144.356
-17.6384	-613.036	-76.6243
-172.061	-851.447	25.3321
142.254	-645.871	-166.806
66.4162	-618.961	-96.5984
-156.061	-8.62183	-168.175
-56.5742	368.739	84.9353
-160.82	-699.811	154.345
182.656	-703.763	-167.285
7.66451	400.692	201.328
-201.847	700.738	156.608
-137.553	57.9268	122.388
34.1242	-65.0529	-64.5038
-191.493	358.857	187.904
-146.604	-501.824	-87.7772
-38.6668	519.698	102.253
30.1626	-337.698	156.411
-29.7029	-333.662	93.7579
-190.457	321.25	51.8672
166.91	-201.66	-79.9885
-213.862	176.008	185.069
121.417	-917.709	171.749
-137.709	224.684	139.031
-12.03	604.453	-25.1652
-203.133	-654.744	78.2409
-213.465	-343.493	35.7016
-122.254	779.19	-36.7803
213.889	584.949	-10.7195
32.7644	25.3388	57.9056
-131.423	-675.676	203.055
73.1325	438.189	-14.4911
-128.52	-269.446	-88.9046
207.952	-330.155	-6.58126
-26.3114	-863.802	-181.108
-138.714	576.826	156.21
-148.724	-917.562	-178.941
36.351	-754.195	-183.898
105.814	140.486	23.5018
-81.8685	-1.62626	-210.642
131.911	895.071	218.275
-67.6788	454.243	121.612
191.876	457.466	182.043
-32.0257	23.1783	87.3253
-86.7148	-368.742	-165.139
-183.878	-174.169	-123.677
-44.6259	603.031	-9.77858
96.9814	-38.5667	153.243
-206.508	-116.837	44.9222
17.5662	-723.803	135.429
-4.44819	274.688	-207.664
168.197	282.131	-183.894
-121.207	-459.716	-166.476
68.5695	623.826	75.4683
-116.49	510.589	-125.028
190.577	-319.728	185.094
181.562	858.689	150.18
-149.438	-791.917	142.82
146.592	331.129	-128.476
54.1334	842.202	191.901
207.62	641.333	-105.465
-216.659	934.914	-5.78453
68.692	124.366	-172.148
38.2691	128.315	-158.774
203.333	-236.937	74.8717
-56.7992	454.627	-45.7923
37.8031	387.442	216.321
75.8455	936.694	101.828
-140.697	-564.356	177.555
218.652	-78.3127	-13.0858
-28.9436	524.472	152.4
-85.8962	298.605	-71.3114
30.9905	-805.533	4.58064
171.242	706.939	29.3272
-101.482	-902.738	190.529
19.616	-963.851	76.9874
135.601	429.656	-160.115
-177.075	-747.057	-58.6525
-143.396	-90.1505	-149.003
-80.4241	767.088	118.46
-140.774	-245.646	-50.7146
-40.3884	75.9411	84.9749
-121.761	-629.012	-97.4266
85.3758	376.929	66.1837
-14.1617	250.596	144.247
96.9456	56.954	-2.75183
-23.2753	-199.858	130.105
-129.67	-124.524	-45.3393
-181.629	-322.12	70.2985
149.336	197.998	101.078
-88.116	-112.366	-208.515
217.403	548.021	141.682
214.284	202.285	206.277
81.5529	-794.184	135.396
165.116	-951.15	-80.2398
206.005	-259.675	-1.3874
173.847	260.702	-24.6195
93.3671	556.548	138.695
101.259	872.752	-189.679
137.387	202.031	-19.6984
-89.0093	-220.03	50.2064
6.18468	466.285	118.223
1.20409	-334.857	-41.0548
-169.577	318.455	-141.821
-111.995	778.427	-91.6476
-186.197	664.318	120.62
167.313	-74.4721	-159.325
-1.44283	373.047	20.0563
-105.337	-658.4	42.9748
-113.846	-920.518	-25.13
78.7662	-692.095	-175.214
209.001	845.525	194.734
59.4821	877.931	-131.577
-205.711	-194.714	-62.3525
-56.3104	104.146	201.22
-14.8229	-392.56	-64.6773
50.8109	64.5492	-132.193
12.8297	923.466	180.961
-144.813	82.4971	216.738
-27.6709	-268.666	165.196
-132.8	-572.372	-168.735
175.748	70.4823	-41.9354
166.882	-642.967	3.29614
64.2795	819.811	100.836
