2027

89.5733	262.635	0.700372
88.7767	70.6697	4.09293
39.3613	137.758	10.3423
67.5458	493.551	60.3407
25.2214	397.499	4.61903
94.9988	466.667	42.1872
62.4682	174.186	35.5863
20.6948	104.567	69.767
10.9655	340.183	36.2978
56.585	177.712	32.4555
27.4333	219.187	67.7476
7.11653	454.389	58.3252
15.8449	416.795	24.0455
4.95203	195.692	37.4867
68.0884	366.99	20.4735
78.1756	145.33	25.8642
80.7365	146.068	84.7314
26.5054	148.398	42.7041
89.5899	12.4212	65.6983
60.7986	458.921	53.1272
1.44008	343.015	93.7019
34.4029	117.139	33.3422
53.3665	248.676	36.0912
62.7763	395.291	74.6494
44.6737	190.116	86.3929
81.1106	109.292	2.20538
14.4828	361.333	84.9524
97.4829	386.416	80.7625
83.376	346.641	54.2783
34.0101	309.837	43.3783
61.6239	381.152	60.2437
30.3756	255.74	33.5105
8.92188	164.703	77.8107
52.1526	0.672031	9.67198
82.5292	290.322	45.1955
76.3927	85.919	76.1949
94.7639	97.4536	62.5833
33.3547	75.1608	0.149152
38.9738	252.71	1.71724
15.0413	8.69346	45.6854
33.3704	235.604	22.1564
55.3679	23.0387	37.1421
55.0294	221.133	44.1232
16.0421	81.7796	6.06895
11.7089	286.05	36.4042
39.855	409.16	37.6869
83.1383	42.671	30.124
18.5001	116.418	91.8389
50.0786	123.023	47.7351
12.6314	175.967	18.0392
86.4628	204.542	29.7038
76.6646	57.1216	82.9299
56.4354	203.607	61.8124
38.9569	337.965	66.36
49.0138	271.512	61.6203
88.6904	178.565	26.1267
90.5048	330.796	87.2499
49.8389	339.351	0.536813
52.9227	65.7801	36.5255
90.9701	219.81	59.1972
57.8598	468.598	92.4839
77.5785	285.112	45.8005
66.1395	288.82	42.4208
46.9657	382.301	65.4962
21.9768	123.476	76.4236
60.259	346.928	37.9644
18.4259	147.431	45.4069
19.751	285.35	64.3802
86.1992	317.402	73.5155
12.5649	199.446	63.3822
64.558	124.442	78.2944
43.7318	467.666	3.4487
61.2605	224.451	10.0862
73.7482	265.892	4.17408
30.3279	317.419	16.0518
4.29677	334.06	83.5003
83.5508	219.507	55.9434
36.9308	86.4947	17.2022
66.1339	347.192	93.8799
89.572	462.463	54.2159
27.4099	185.303	83.0258
99.7898	319.394	31.7444
83.4353	444.84	23.2739
79.1344	241.471	70.1994
65.6613	314.909	51.9784
54.3673	232.509	28.6146
38.6681	54.5864	2.76729
82.2232	56.5582	15.2803
59.5335	53.9462	78.3923
78.1641	222.865	51.8752
98.7675	469.423	41.6823
78.8254	316.907	10.8548
85.2921	464.835	63.1428
48.5613	31.4381	12.6734
87.3756	153.469	58.0644
33.3847	474.882	18.45
20.5317	5.18219	49.4911
49.4357	83.9139	33.5441
3.1209	377.636	20.6849
82.7574	416.911	10.5166
26.4257	302.93	15.3633
67.7499	258.959	87.333
79.3864	471.429	72.4371
68.1844	370.603	0.358418
65.0759	350.539	81.0415
23.7342	372.359	24.5622
47.7403	436.913	88.5937
93.6419	482.06	83.9281
24.1104	490.958	35.5567
20.9114	459.316	31.5247
27.2472	141.74	15.4186
77.5817	29.3128	38.8423
33.1411	410.497	30.544
60.3075	89.7611	82.1176
18.4015	17.4656	27.9882
8.74589	385.663	85.1454
30.8915	270.263	19.5285
23.0878	165.77	35.5002
90.9187	289.108	34.5976
93.6884	427.254	58.5631
3.18788	321.188	45.6251
59.3647	210.052	3.84487
4.38175	272.956	38.0016
42.4903	91.1489	54.6487
52.1581	118.137	6.82581
84.0339	102.707	21.3226
62.503	129.843	77.1898
25.5205	471.316	63.0379
90.4691	320.785	80.8721
76.7301	414.532	2.149
56.2666	194.381	1.17569
89.7154	84.2061	39.8797
36.8079	370.059	20.9696
33.7731	436.398	58.7915
61.8855	177.762	82.2722
8.68954	89.4143	74.9076
37.5498	498.212	92.9145
18.7381	479.564	52.4546
81.0527	77.9981	53.8645
72.3248	464.468	66.7294
67.4674	212.287	87.1261
91.3981	111.542	18.1325
82.0961	68.1975	69.9107
54.8725	130.088	18.891
1.55416	272.233	19.9816
9.46864	41.1042	77.0966
51.4758	299.064	52.9896
95.2483	14.5931	0.471464
84.3061	227.454	95.5361
93.5012	166.249	87.7279
97.3413	471.836	87.2309
37.2526	151.551	49.4025
32.0901	214.112	53.1102
78.3248	330.517	3.22607
21.2222	190.544	75.0157
95.9152	68.0853	75.8352
93.0233	48.3133	58.3563
36.5729	152.581	37.0117
34.4912	411.942	49.2
69.2682	313.626	52.7182
71.6604	102.966	44.8724
80.0343	490.093	14.2401
59.367	218.887	65.2744
9.7175	417.598	67.467
55.9509	269.59	74.9763
4.309	12.5635	30.5926
75.7632	3.41214	80.4348
65.9648	393.043	29.9967
59.9459	223.696	27.4087
22.6995	144.369	27.0485
71.3714	431.59	76.3491
72.4502	328.114	31.8575
34.4218	142.347	35.7004
3.27508	322.283	67.5482
84.3616	131.791	3.35382
77.03	87.3893	15.0023
50.9647	184.31	42.155
70.6963	268.771	21.2894
79.1174	463.204	76.0072
33.0669	374.56	64.3306
91.3675	73.8677	83.9647
57.6705	1.44387	20.7796
28.7909	63.5069	43.8348
26.6865	458.461	73.212
89.0178	336.061	10.4752
36.6101	56.8949	44.4565
15.0015	480.114	49.0553
94.6328	59.6916	69.4426
65.0835	246.208	93.0808
98.2215	180.657	15.5151
19.3834	235	5.26812
82.8743	29.3899	60.8676
49.3802	165.006	24.2941
59.0779	132.26	55.8302
4.48906	122.959	67.8501
56.4458	473.838	46.6505
63.3544	16.221	65.8405
49.81	453.075	80.8349
5.96236	184.249	85.6439
51.5163	331.27	71.0878
5.31949	476.812	26.3334
84.3632	47.0642	29.6107
59.4673	342.658	18.5845
69.1019	206.22	59.9377
64.7227	55.8944	77.8297
62.344	245.918	9.57662
95.3858	230.776	40.9976
17.6944	438.529	63.1246
47.4905	330.12	76.5313
84.2404	138.982	51.5607
49.6963	328.584	4.67894
76.2405	322.707	44.064
17.9877	448.612	78.1269
69.1622	441.168	99.1146
91.4425	167.586	84.9279
16.2657	213.501	5.99863
42.8096	401.882	76.6725
4.18519	461.547	72.4907
22.5746	433.362	75.4683
66.615	249.825	20.1431
87.1345	292.242	32.3839
34.4728	462.379	59.7079
2.72516	83.0584	97.7114
90.5283	187.18	45.1428
47.1062	129.704	49.6305
91.0464	415.24	97.1656
32.798	35.0883	76.3005
69.1104	140.515	97.9765
1.7448	277.522	20.2831
51.2347	309.483	3.16686
33.1814	204.894	15.8148
33.6112	129.214	71.9703
95.3346	208.373	77.7282
75.0505	191.028	64.4958
33.3924	48.1671	33.8065
63.2833	65.6421	65.4652
41.5546	304.949	4.56563
57.65	328.097	86.7485
95.9501	420.498	10.2962
61.5848	249.909	94.6969
15.0578	153.599	37.9498
83.8271	84.882	13.4521
72.6165	24.3827	31.288
10.8846	112.909	89.8684
16.1352	183.486	78.079
29.701	283.923	19.3041
42.3582	284.858	17.3941
52.8414	389.388	89.3316
27.5097	295.121	77.0765
82.7956	55.3317	79.2117
79.2785	320.339	21.3558
27.3748	36.0097	19.3373
61.5694	182.923	64.6739
10.1551	143.652	11.1287
66.9963	370.719	50.5913
34.7397	33.4937	68.4922
66.9496	378.583	15.7028
29.5302	120.357	37.3375
68.0428	115.455	80.8372
39.3773	5.99419	90.9322
39.1818	66.2373	16.069
20.6963	104.693	73.7948
72.452	107.091	55.5696
81.9305	452.897	18.7857
92.6472	138.886	69.0014
51.412	48.551	29.9816
19.3143	391.411	63.2268
60.2901	333.76	23.5784
19.818	306.336	48.9343
41.0393	171.896	75.8264
85.3075	345.169	62.0207
42.9082	116.779	24.7775
92.5659	154.015	65.3208
37.3078	178.65	33.0786
69.8246	108.349	11.9203
58.8625	338.64	65.6856
10.0866	368.007	94.732
41.2395	5.00929	84.1154
92.4708	177.957	14.6388
5.55505	119.977	68.7493
38.4048	463.804	66.4213
24.064	381.493	51.0489
22.7809	189.694	43.4722
35.712	342.978	38.3588
92.4103	349.436	84.2294
50.2498	295.199	25.0835
80.3238	481.028	29.148
35.0272	390.673	56.0969
45.8683	269.214	62.6664
95.1097	47.0691	44.9719
13.2983	443.004	86.4425
7.03072	128.748	95.3957
70.6081	231.753	81.6527
93.1703	165.399	72.0063
10.8901	378.387	12.2042
65.1697	401.425	8.29542
14.6062	401.559	83.9123
69.3963	438.318	35.0551
62.5614	43.737	90.5637
4.37234	333.957	57.7891
79.7924	251.211	5.10865
98.6211	167.781	21.5654
43.6745	294.281	14.6685
34.4749	175.966	41.6301
4.88061	103.359	87.7558
22.5203	131.077	9.29587
58.1013	49.3247	92.9845
60.1375	75.0316	93.5838
25.2518	160.51	26.5358
65.4342	297.195	3.56789
6.00956	76.869	46.6467
94.0506	31.3128	58.438
9.25306	3.89112	72.6743
33.3978	387.13	33.3494
65.105	341.023	6.36823
50.3911	60.2516	89.1637
53.0925	359.627	82.8963
37.9124	80.9271	37.295
76.8907	60.0801	76.5463
28.2511	340.576	43.7401
64.9273	72.4133	51.8272
92.2184	28.9139	56.0189
33.0672	67.471	24.5506
81.3439	7.39022	12.8305
78.7636	94.5586	61.0483
12.4322	35.4311	61.3568
15.7388	18.9299	23.4931
41.4998	153.935	85.761
68.7333	257.868	11.5305
65.7704	196.755	88.2515
67.9977	497.598	38.8909
0.938668	219.8	29.9822
12.861	75.7198	75.2914
76.3906	389.025	26.517
84.1915	370.587	52.5548
74.6949	43.8219	22.9235
94.4523	235.213	5.63856
91.9714	146.415	82.7781
22.3074	203.425	11.5814
50.9767	215.119	54.1923
78.774	435.631	62.4684
52.2452	353.625	0.0375822
61.7392	7.14867	16.3615
55.8241	12.2919	0.951656
73.0992	118.497	75.3001
6.34021	299.133	70.371
49.2787	463.099	35.6341
22.9924	167.207	67.0412
33.7391	221.516	9.09951
55.1638	49.569	82.2655
74.3686	357.576	42.322
41.2306	360.819	10.1588
50.7618	391.235	9.75894
12.8972	471.023	10.6357
21.4836	23.7842	61.8699
29.283	400.175	20.0987
44.9966	233.394	42.3198
24.0282	139.57	80.9022
26.3263	22.3605	32.8916
89.1583	393.775	27.335
58.614	449.562	81.8829
93.8675	387.842	20.6466
61.808	418.725	65.4567
25.0719	172.21	57.6013
10.2537	95.5963	56.3713
54.6364	189.219	31.4677
44.2646	128.167	14.5664
69.1506	10.7316	13.0217
75.9439	146.639	84.2667
39.9421	120.211	47.4612
56.7413	101.295	23.1697
20.5584	174.11	78.1042
94.3529	268.575	68.2424
51.2807	62.1571	16.1219
27.6247	96.3692	14.1194
22.914	244.31	66.8743
95.2928	203.505	65.8733
68.9421	367.459	64.3806
70.7873	149.952	18.6788
65.6922	403.568	82.2098
77.8967	456.832	61.3746
58.047	382.554	93.2222
50.323	167.106	66.1416
87.8731	359.669	24.9203
39.2949	16.7966	4.66922
24.2636	307.812	3.71405
28.1627	56.0924	71.8269
90.4771	25.3011	24.3418
70.2675	27.6051	14.5676
85.3056	13.1098	4.39552
37.8684	477.718	80.883
63.3022	262.607	84.0724
3.15568	378.127	22.9517
92.0034	294.909	74.7839
46.9747	369.453	28.1947
51.9903	159.708	33.8252
76.6312	424.065	32.9206
33.6217	246.823	6.66344
62.5985	57.4176	7.71535
32.6902	406.136	49.4832
31.1107	333.415	37.6097
64.6078	190.892	41.6587
43.3692	359.404	61.9685
10.2887	209.314	66.353
23.6151	27.9664	63.5509
97.1783	292.5	34.0202
69.8897	149.414	74.4755
65.945	204.781	69.5506
32.6097	293.045	58.6577
1.98219	157.811	88.2742
57.0473	73.6792	95.7209
3.63349	495.765	86.0079
26.4743	53.7466	32.0362
19.0658	167.128	66.3588
44.93	18.9795	90.5633
76.8655	461.203	68.5411
62.7936	186.571	99.9125
31.47	494.58	49.9394
29.2043	271.728	27.29
7.8238	281.658	69.341
17.1944	93.9493	99.5013
72.128	107.748	21.0378
8.94486	242.653	41.5731
91.7812	109.75	16.2008
42.9677	468.436	24.9722
7.97229	138.812	39.3708
57.2144	476.552	34.0167
83.1772	407.466	92.8525
34.7368	174.799	45.2724
77.9889	10.803	52.6567
70.8339	170.507	50.1154
59.0942	192.199	81.0326
37.6994	46.6448	80.4838
39.3825	484.626	11.7821
42.8309	95.0225	61.835
42.3026	82.3102	77.2728
21.8924	253.516	28.4838
49.6765	254.119	26.912
3.98697	25.7391	46.6116
56.4816	183.506	37.125
4.9143	292.399	47.9241
87.2281	497.375	43.8208
86.0025	217.566	25.5226
33.8258	347.999	14.1138
97.403	8.23775	26.6172
95.4775	76.27	34.8484
98.8621	449.769	25.2522
15.7718	23.1882	1.7718
0.291835	14.6635	45.0747
24.818	287.222	90.4582
34.629	170.202	65.7065
23.3339	109.65	14.3432
75.5891	451.996	25.8497
22.5928	341.544	79.1265
44.8443	185.824	72.738
25.9445	200.559	82.3119
34.5795	102.485	93.6303
90.2955	118.85	19.1172
1.27009	442.18	52.6944
13.2223	460.622	28.061
38.8063	390.824	40.8387
84.0621	120.958	23.9853
21.3266	291.798	35.7556
93.5234	100.928	16.4321
96.98	63.5339	0.252969
37.5259	343.835	40.6658
98.4863	455.37	27.9618
12.2086	375.47	17.7276
76.0957	411.454	58.5658
57.9362	112.56	72.1518
62.1157	193.373	72.1261
48.9904	209.344	50.8586
22.045	467.893	32.5926
14.4134	52.7774	45.4838
63.5176	265.645	29.6881
80.2416	310.596	68.3027
66.9643	140.171	92.4728
47.1603	98.8813	29.1746
94.4478	204.193	47.5994
59.1481	181.302	39.1544
22.6748	80.9507	31.8896
68.3844	446.763	40.0186
32.0643	220.238	87.7593
74.8919	335.155	95.316
99.8143	105.213	0.438344
26.9733	235.573	60.1428
93.187	24.9569	78.5578
69.6387	247.966	63.8507
9.52593	134.861	11.7015
24.5872	342.087	71.0513
93.4658	373.998	9.77497
47.9784	195.821	58.4766
88.2528	279.414	84.7565
77.9297	366.123	23.0725
1.82839	305.811	19.5988
77.0762	290.615	3.78282
68.5798	35.302	82.7547
86.7667	187.123	2.82617
58.051	16.7948	36.7239
62.6105	203.072	17.4811
11.1147	328.979	50.4073
21.3694	287.62	49.5986
3.63698	487.978	86.4881
44.4545	220.82	57.114
32.6581	388.918	17.1016
28.7294	284.729	90.8353
49.6452	10.5499	66.3638
18.1705	256.137	50.2689
93.3792	203.776	82.2085
94.0181	109.919	28.7697
59.1463	115.23	88.0965
0.0808618	219.275	53.1438
90.3006	459.947	9.25936
68.2893	159.519	48.3544
7.3851	142.167	32.1797
99.6384	181.89	54.3081
31.4457	249.659	95.6704
80.922	406.762	36.7524
46.1451	117.409	2.64607
58.7141	11.132	73.9511
47.7596	150.561	32.4885
55.2454	149.031	66.5287
17.5317	412.964	49.7846
58.7245	68.1977	85.7685
15.4802	407.29	74.8632
44.5453	430.544	39.7916
53.7621	276.471	51.4114
46.19	9.26493	58.3756
83.411	253.911	50.8244
99.6172	356.823	73.3871
97.2244	348.874	72.859
74.5929	446.728	19.413
19.9957	350.592	45.4893
3.63292	468.645	51.8616
18.8604	5.44639	14.9086
57.7547	409.87	78.194
62.8272	17.1338	16.5433
36.4775	258.08	49.5224
63.6558	326.665	25.9175
89.1293	377.064	62.1759
25.3518	139.998	45.7112
28.6359	301.526	25.5456
12.5419	444.39	53.4401
52.8574	321.617	9.16215
82.0766	393.032	56.1533
29.9775	245.571	85.22
78.7679	201.73	72.7491
43.7013	438.72	53.8698
55.054	354.091	67.1617
98.6114	413.246	86.0683
68.9781	5.33521	55.1928
97.0137	47.7786	91.0683
9.59658	271.642	55.675
89.8092	428.109	85.8338
5.84431	132.178	45.2763
12.3318	387.774	16.0616
63.0726	318.96	23.7215
37.0104	362.53	61.1743
31.9572	447.324	43.3722
79.5694	383.994	60.7155
30.1705	103.423	23.6656
60.7462	21.6521	93.3525
46.1972	76.7818	70.3409
29.2593	359.157	67.5635
83.2419	64.3218	39.3636
57.0526	110.394	64.7504
7.05081	226.78	44.9255
26.6312	232.63	98.9972
17.0875	44.8931	9.36148
56.0307	253.365	46.8374
20.2091	38.2545	69.3682
49.2369	83.2623	94.1818
72.9367	373.855	63.1512
95.4996	167.284	61.7116
76.2368	152.527	64.3529
8.00681	409.439	15.1533
93.8246	491.024	24.4668
97.4474	484.485	55.0142
60.711	288.311	24.1308
95.7495	116.741	50.4064
33.0651	146.049	80.1252
90.1215	336.882	66.3515
0.0365624	286.869	3.67734
48.328	99.8511	20.803
14.7475	479.099	40.3123
31.4992	168.077	91.8238
17.1375	74.8321	60.7991
59.2907	164.192	21.83
65.7608	56.5483	34.8916
34.8963	385.957	26.7919
5.36934	396.281	38.5386
4.7168	293.534	87.8275
5.58578	39.5958	55.5025
7.1512	96.451	32.4908
1.56755	387.703	64.8536
97.3679	176.696	61.0404
73.4797	419.474	8.89626
75.2386	66.9436	36.6805
3.33136	349.074	93.9952
11.7606	95.1723	92.2814
26.1303	198.403	26.0857
89.3358	169.474	26.4573
97.2061	461.346	78.0331
99.4074	419.201	40.1908
34.6786	314.762	88.6456
29.2302	432.745	45.2187
18.7247	108.145	49.6989
74.3148	32.4495	37.2962
71.8019	339	38.171
18.8895	267.56	45.8086
43.3938	258.675	71.7785
4.55931	127.859	72.9951
65.5473	426.414	33.6132
78.1042	411.601	46.4298
86.29	8.28611	37.7706
78.5353	237.355	6.39498
43.3492	472.059	98.2702
34.7821	229.31	59.6293
5.53886	424.986	45.0137
81.9441	267.776	97.2011
10.604	217.051	68.8654
0.607405	12.2169	48.7983
27.5042	252.18	35.7346
94.2771	438.242	43.1488
67.4259	454.124	20.6195
38.5658	142.602	54.485
85.6946	66.3518	95.7502
67.4825	0.0662718	18.7005
60.8097	158.98	77.0205
43.9426	265.054	83.7381
96.1285	414.588	90.8314
82.2906	336.792	63.0663
1.04994	456.507	59.3594
14.1617	378.071	77.2603
48.281	84.2562	27.3069
58.0618	482.008	0.823762
29.2989	174.133	26.8419
43.8867	299.244	53.3855
39.8265	365.696	22.5141
13.7305	435.408	91.2491
95.2762	166.7	11.2739
36.0045	231.521	26.6342
83.6977	83.4434	47.9796
4.13357	233.195	66.0934
42.3831	228.185	83.5947
7.5638	63.9111	63.4713
31.3815	319.965	80.6841
94.5983	448.244	57.242
85.4503	213.714	49.1711
17.3531	87.923	80.1514
53.5884	147.449	44.1051
29.4889	29.3692	4.88697
90.2872	30.0864	98.746
8.13874	13.3299	74.9249
78.7475	275.234	57.8645
17.4408	281.525	33.4167
71.9988	152.298	59.3352
23.2007	377.255	90.1644
20.7137	335.552	84.2945
21.6132	469.919	86.8416
97.6671	242.577	10.3637
38.1849	259.044	78.7311
63.5289	394.602	40.5961
4.6564	285.584	30.6967
23.2068	383.247	2.65203
87.484	460.083	71.0456
46.0143	105.153	84.3628
0.306357	304.057	4.98878
46.4941	232.863	24.5631
82.4072	308.35	95.0157
87.1886	101.546	11.008
30.1075	338.8	95.7975
23.6005	8.65778	34.5386
83.1578	113.304	88.0448
43.7753	457.233	27.603
50.7087	384.217	71.4449
18.5475	266.656	4.97157
15.1499	34.1901	10.7254
90.6806	99.7921	85.8991
99.275	6.00882	42.4279
39.0081	483.286	56.2526
82.6811	416.1	73.2725
95.4058	222.655	96.0883
89.3842	495.248	5.9135
84.1006	397.142	11.9566
68.3284	244.306	13.08
17.1796	65.2946	80.2721
23.7551	106.121	16.0171
43.4285	415.555	52.553
2.50622	161.894	70.8592
26.8647	369.384	99.0396
98.0159	79.9364	61.0435
31.2692	365.735	29.1582
57.1752	26.8471	55.088
61.1663	357.195	54.0711
90.1538	60.8678	90.0516
39.604	492.022	7.09286
69.2767	296.549	98.3752
20.4486	134.772	90.5694
6.28528	216.002	93.8993
62.2386	465.256	67.186
68.802	253.943	72.6554
29.6785	32.049	9.33698
57.1562	329.556	13.5473
31.6223	224.586	81.0643
80.9498	73.5842	84.5293
36.5498	387.614	10.2972
69.879	265.631	75.5897
63.3426	43.9471	32.1174
96.4579	450.23	23.8238
20.0797	434.076	83.96
59.8178	28.1499	42.1444
8.37034	320.028	65.9959
54.4415	444.632	3.57787
84.6149	173.862	74.0803
4.06983	333.36	99.7567
32.936	227.23	38.4147
70.935	223.439	52.9257
86.0311	8.51551	78.4164
50.0899	430.709	16.2201
99.476	468.911	90.142
42.864	239.387	31.0288
26.7345	284.916	67.9309
47.2952	496.398	45.9185
16.0845	202.067	66.4184
15.8898	109.921	68.2898
26.8342	433.248	24.2329
75.712	344.512	54.373
60.9174	85.7347	16.423
96.6933	4.51186	90.6589
77.3321	84.5386	57.2722
57.2865	103.194	84.5281
45.0224	450.811	97.5702
28.7057	354.57	79.6368
75.2387	65.965	55.4124
9.43582	212.602	87.3106
10.6786	330.723	26.7553
73.4894	161.192	94.1065
35.4592	298.718	99.0263
58.0634	105.324	91.737
29.8855	94.8091	3.72021
71.3681	104.158	58.598
36.0486	356.673	42.1007
71.846	126.348	4.55295
99.5324	135.008	92.5214
8.37001	240.879	75.1346
46.8206	110.337	6.03986
9.38031	177.332	72.2134
72.517	318.867	28.6332
91.2045	374.877	96.4474
8.64144	246.211	14.9331
51.9951	308.694	59.7203
55.2631	159.727	46.5169
68.5149	151.25	41.1336
29.9655	70.8947	88.0489
60.1878	422.171	22.4888
19.8504	144.077	54.2962
65.6757	454.416	94.7602
69.8357	56.6046	65.3341
45.968	306.93	3.40971
15.7659	141.952	38.8856
42.1786	254.066	87.3919
59.6054	269.438	38.8312
32.2331	26.0753	74.6907
83.0729	218.541	74.1106
12.2685	109.365	22.9778
25.1181	459.169	92.3802
93.7608	345.727	17.2041
65.5208	57.9626	83.0253
75.2911	179.811	41.0845
81.0859	153.028	77.0337
4.84267	151.124	34.0022
41.4709	280.723	89.1335
72.5489	398.049	85.5426
13.9044	234.974	13.1903
63.2557	395.585	68.2366
24.6833	209.384	14.958
83.9972	369.765	41.0368
83.6671	178.762	54.9948
45.3072	474.911	55.1803
39.4759	375.073	77.2998
96.1595	9.78875	74.075
0.81783	377.584	90.7675
39.8439	455.901	46.3715
48.7772	173.877	40.0803
61.8137	35.6426	94.3901
7.001	427.544	9.56148
14.2688	47.1767	55.8748
65.4227	274.784	31.7395
21.832	457.763	94.4771
11.9132	261.006	61.8902
4.31371	25.9827	46.4386
16.5558	220.454	87.9032
51.1106	345.595	73.2685
86.7268	130.689	58.9215
76.6261	447.954	10.0644
13.4951	229.856	2.18783
6.49207	116.01	8.4297
67.2445	97.9714	45.5153
48.2207	424.847	18.8319
49.5418	370.804	7.51258
31.3484	331.108	32.9067
32.3501	53.5442	22.7287
90.9101	418.086	33.7171
45.0337	227.458	55.2447
74.8636	325.315	96.8311
18.5253	452.211	22.723
8.4922	55.3528	40.0146
20.7029	301.915	99.0771
55.8916	8.19123	46.2019
66.17	45.6052	98.453
93.9213	452.836	49.844
4.02454	273.809	98.8004
16.3658	322.103	53.8099
43.8123	117.938	13.2896
32.5668	310.287	33.9203
8.99324	39.4911	72.9008
81.032	322.876	41.5644
39.9559	88.1499	92.4721
65.5314	309.462	7.02916
56.6843	485.162	37.9396
0.312186	334.597	56.5159
65.1351	165.906	75.6592
31.7097	228.944	73.3666
26.5934	12.4747	38.1245
46.0448	261.552	90.4656
62.3161	494.596	19.3021
80.1853	361.682	89.0348
56.1164	198.472	25.8176
2.48041	295.365	41.3657
79.354	286.59	0.327934
27.3089	253.837	54.5836
82.2911	72.7732	34.5007
68.8555	145.474	64.5588
60.3902	250.572	93.2185
38.695	70.9349	58.7708
6.55353	203.192	26.0603
99.8593	296.552	89.9946
66.1044	404.69	1.72462
22.9172	235.299	22.7921
9.22546	337.061	71.6858
24.0979	378.59	9.96279
90.257	91.0499	71.7018
21.7348	309.82	23.9581
47.9523	384.964	41.2839
90.9228	210.543	28.944
19.3782	219.494	15.1618
44.7988	244.39	30.9802
61.78	108.416	63.3439
59.4213	416.456	2.25924
66.5877	250.772	62.416
26.768	51.3658	20.0189
42.3867	182.18	39.7056
79.9324	410.401	46.5831
93.2313	61.4218	79.8358
46.9719	324.679	22.1004
30.6303	368.312	38.2386
43.9372	355.332	90.6787
30.686	52.6675	12.3876
27.5013	479.302	4.50573
13.8747	211.846	68.9604
16.6547	280.057	29.8121
49.3947	49.3914	99.656
8.65835	241.559	18.3932
92.6839	76.8124	55.5147
14.8476	154.235	59.1298
16.0479	65.4582	49.9037
71.7724	171.759	46.256
67.4894	331.53	15.2769
35.852	258.101	25.8559
9.04579	398.333	72.238
0.824805	288.298	99.6347
37.2779	33.437	55.531
78.8307	124.241	64.3679
44.7286	454.34	68.0807
9.96247	444.754	95.281
80.5831	494.903	36.6399
65.9455	161.828	46.9222
45.2364	493.71	12.854
53.3362	306.932	7.98067
52.6665	326.041	54.4008
62.9681	300.673	67.2307
64.6564	398.897	84.3507
19.1831	305.223	59.8325
80.1732	188.619	6.24011
19.6571	87.3233	73.7646
41.1294	29.9571	15.3585
23.5693	76.1763	8.51074
27.2205	191.709	4.9007
0.866849	6.54193	8.04032
92.8281	482.687	21.329
52.0219	159.093	38.8538
46.4126	477.802	28.7982
52.353	14.4799	14.9711
33.6812	198.589	63.3817
33.2379	138.905	11.3691
98.8288	180.927	73.4481
47.3717	390.227	89.0022
74.6861	222.832	44.291
66.9959	28.6561	40.8086
79.5592	23.9972	41.3853
27.2543	265.407	87.8702
28.3915	383.384	52.7216
71.7256	307.315	12.7744
18.4637	466.216	21.1536
83.3703	390.788	16.8248
16.9665	377.451	35.4724
95.3266	163.109	36.4559
72.2548	260.991	55.1677
13.4248	322.79	13.1342
85.3092	255.619	71.0388
93.1693	331.05	35.4988
56.4185	115.655	64.708
39.8823	491.285	42.5283
44.1603	42.9597	75.7335
70.1681	206.339	24.2964
26.0043	492.642	18.8444
2.85295	242.629	15.2736
94.7965	305.936	99.1214
99.6169	5.61023	97.4719
77.9483	384.276	92.2101
98.9401	370.78	45.1303
48.7553	108.673	20.1801
12.7983	198.661	37.5567
46.4367	131.282	74.3166
74.259	39.3193	90.1101
67.3392	110.06	86.0453
87.398	242.493	97.3289
75.825	257.648	15.1505
61.7175	419.505	12.3158
27.4817	206.576	19.3804
33.6378	201.088	25.7629
83.5724	476.343	72.8177
38.5886	167.549	22.3366
8.03466	66.8751	59.7042
86.5584	347.718	17.4089
43.5374	461.387	57.5221
17.2081	243.762	45.8983
0.429641	252.846	88.2938
65.2497	2.31288	0.650199
36.969	94.2344	36.7411
37.6099	389.82	16.2737
44.1342	305.413	7.62916
51.6124	396.228	90.1151
30.0115	418.95	42.7892
47.8322	343.679	54.6477
0.624689	40.7171	8.70373
17.1436	403.07	58.8896
30.3557	67.3885	40.7885
74.4465	284.957	61.2578
58.0893	287.346	4.03467
70.1207	8.05138	4.79681
80.4664	467.414	45.7422
85.1985	307.39	81.9527
11.7721	334.287	69.8852
65.7264	210.886	54.9945
75.2951	351.384	20.0926
70.2129	235.348	63.7987
60.5118	204.446	4.53295
3.82666	494.318	72.0746
19.515	242.625	42.4304
33.0682	58.6314	51.5791
64.2833	429.043	91.1281
21.7404	170.988	74.9634
7.69098	158.19	96.2075
98.0589	188.764	75.7375
20.6759	434.941	43.8088
98.3253	265.717	45.5497
61.0371	12.5778	51.1583
24.7979	124.178	23.361
51.7958	361.84	43.9687
71.2831	216.191	14.4218
25.9869	130.725	52.3388
11.4686	94.7045	40.3795
54.9669	107.239	5.49636
21.8902	247.447	36.4322
31.2176	16.5004	9.8576
97.3133	186.312	60.9969
30.919	178.338	22.3401
94.6248	137.353	58.0666
41.0562	132.199	33.051
1.03336	372.258	74.6495
31.0069	65.8419	78.1607
15.5207	401.542	11.9135
99.4083	152.202	43.0989
45.0239	171.423	14.5344
54.5218	329.671	9.95088
26.2332	19.4822	51.3675
88.2541	386.071	18.5055
10.3061	345.042	72.5277
82.3563	463.623	3.86088
42.7176	31.0093	17.5247
92.0345	343.733	84.8634
52.8012	362.847	82.9909
87.0835	423.265	20.3962
35.2811	276.9	48.7528
40.0152	421.198	53.5436
59.7923	24.4594	19.5502
91.1518	379.402	91.4187
13.2987	338	28.2773
4.21674	437.215	95.1048
40.1039	165.472	68.3168
59.5708	259.25	61.791
91.9679	226.973	54.8732
29.3776	89.7515	77.7954
54.5039	423.7	23.3193
78.1682	23.213	11.6576
32.74	261.798	35.3428
9.52628	116.352	9.96201
44.1683	451.637	38.0837
2.90768	270.628	97.7993
67.539	49.3425	61.4111
11.159	428.542	57.5922
19.964	21.369	44.9713
53.0162	71.0209	44.5774
62.7357	108.749	40.7442
37.3597	388.731	89.8586
60.6454	178.803	41.6342
84.6389	12.6619	68.0156
70.1946	416.89	3.59559
39.2874	181.599	17.8071
57.1869	394.281	9.39088
24.9774	439.83	12.5196
72.7347	338.254	18.8529
34.3329	272.622	46.5441
7.86347	449.444	17.1773
30.2231	49.7467	52.1054
30.0402	45.4696	67.5291
2.32212	17.1197	86.889
17.6114	162.087	75.6937
86.0919	83.0329	98.4232
65.5948	499.039	21.984
85.6538	207.743	17.2999
27.094	377.167	92.2728
89.5948	346.657	89.8937
20.879	385.322	37.7197
96.4168	456.13	13.7199
41.436	155.34	14.2254
22.9565	102.359	0.677181
81.837	36.4394	80.793
36.0443	293.6	82.4806
50.1524	271.243	91.4956
74.7674	322.043	34.8943
83.185	299.003	45.6638
39.4471	225.01	64.5615
9.66363	81.2751	67.3504
26.5392	382.46	97.5907
79.1945	491.65	61.3359
93.6861	71.5732	92.775
56.8259	413.852	92.8172
93.8022	440.566	99.7718
59.7248	35.2251	26.8294
98.7952	238.933	94.6144
76.2349	369.377	11.2128
18.5616	366.868	86.9964
51.677	408.123	10.9511
64.0152	266.74	89.8298
86.8951	280.417	63.5193
60.0118	173.263	60.0994
99.9669	275.378	46.8422
12.9176	10.5514	51.3905
29.3371	368.386	54.4773
47.6879	416.986	69.0247
12.9582	418.16	56.3029
22.8123	16.5602	20.3873
18.1072	456.086	37.5177
67.2016	47.4626	63.0856
32.5785	425.454	51.5162
79.0588	261.1	12.8802
54.6014	8.18323	82.981
23.0557	64.5886	83.9441
68.6762	296.587	32.3476
4.90826	360.894	15.839
57.2599	18.5126	85.7178
99.3762	88.0847	31.7448
36.2969	116.218	26.9635
55.8721	357.506	86.0606
92.728	385.293	80.122
25.9876	294.69	26.247
83.2475	436.469	89.8853
17.5126	226.996	12.5889
87.9842	491.965	85.6531
27.9633	129.981	82.4722
84.9476	345.335	45.3873
80.6716	298.372	12.8094
18.9125	139.664	8.21987
97.8559	139.605	17.4168
25.3728	341.884	72.7455
77.8546	405.641	48.6973
81.0785	38.1206	50.6925
49.7953	184.686	91.9943
91.5723	403.119	21.5467
10.0984	479.165	13.5851
13.5825	496.867	44.1895
85.8317	212.786	22.2084
1.86465	216.576	23.6069
72.8328	169.223	27.5397
81.6658	227.334	13.8119
11.622	384.988	17.638
48.8556	377.85	37.232
34.7448	496.197	98.6729
77.3891	101.537	85.8851
28.5287	187.708	73.3991
82.4397	354.335	58.9775
17.3061	81.749	23.8835
86.3643	161.981	24.243
92.6055	404.506	1.8924
19.1104	109.478	81.6261
5.03525	164.194	71.2925
54.8449	230.999	77.4855
0.95179	176.165	29.5749
82.8364	36.7698	79.8322
90.8544	252.597	50.8615
70.5297	137.1	11.7903
24.333	283.818	87.617
58.9232	13.7556	20.544
93.89	306.859	29.195
89.5502	211.806	29.0844
60.6226	322.648	87.5444
79.2378	153.059	16.0987
83.6168	145.392	72.281
56.0141	215.258	80.5566
0.0695104	275.137	74.1832
25.1275	61.2305	79.2085
43.1949	65.2125	69.7821
43.0653	114.394	77.8401
87.5233	53.4617	36.5185
6.76409	46.5186	90.9672
33.9907	94.2865	55.3157
17.7062	341.748	85.6432
24.6035	270.741	95.7511
72.7819	260.703	80.5097
28.8205	470.908	41.7961
23.7342	318.751	60.2931
13.9659	359.279	52.3061
22.073	212.221	60.8298
81.7547	124.179	17.5605
37.8229	467.994	51.8055
66.5515	401.064	49.6826
93.5813	380.817	84.6213
42.6481	30.8764	57.2806
60.516	453.327	17.6046
96.9584	327.814	12.9696
36.4651	473.975	65.7252
66.4448	272.621	21.3118
31.4755	152.659	44.5418
88.5716	44.258	74.5189
29.5545	210.767	66.551
29.5366	183.767	29.9396
90.7082	426.264	77.2555
49.2885	491.962	35.5395
20.714	26.9266	9.01199
2.58192	178.568	72.7179
17.0209	499.534	71.6518
30.2341	207.509	8.10666
96.144	190.324	73.6509
78.3657	52.2898	8.37457
67.3256	294.806	89.1691
84.0722	73.1603	88.8089
42.0854	188.288	56.9339
70.3737	468.176	84.7043
48.1287	350.185	12.6624
82.0576	121.467	20.4711
43.739	371.06	4.94696
85.9974	163.319	69.2382
0.889723	184.98	29.3286
99.6031	246.397	74.785
27.5201	100.309	53.4739
3.35164	143.784	32.7923
15.21	146.297	92.1022
47.9596	214.922	82.8465
88.8842	239.056	52.299
28.3419	465.96	12.2679
78.4127	418.115	9.234
17.0393	144.988	67.2961
73.1294	479.038	71.0431
24.6622	361.524	98.0868
8.18409	432.404	96.2349
85.2909	261.625	40.2068
68.6552	26.3844	18.6915
95.8111	480.008	38.9354
98.5056	336.104	88.5119
53.4723	32.7334	59.522
90.598	489.568	62.8196
47.6649	147.423	96.0662
88.9671	474.954	23.9762
2.38498	86.7099	31.8027
12.8725	0.452299	28.6204
74.064	439.228	91.8012
39.102	425.268	80.8547
39.3628	168.204	97.7465
60.1848	49.1651	17.3099
2.38855	314.06	80.5188
38.7671	200.208	36.44
5.67461	464.026	56.1876
68.9571	440.303	28.8411
52.0391	309.54	71.868
7.60865	446.97	32.8519
40.626	104.527	67.6989
43.0213	129.149	83.3545
65.9312	2.06244	4.25013
21.8391	45.2263	96.4167
8.10887	297.91	13.2197
46.7672	149.656	13.6864
72.8672	387.717	65.243
61.3984	321.195	33.012
90.0598	89.7733	97.7635
25.2779	141.67	66.3341
22.0095	67.9274	91.5637
23.5805	281.748	14.4173
81.013	72.1281	10.4044
70.2409	428.027	93.9679
87.8505	15.2042	73.4526
71.1011	425.162	2.32597
66.108	116.4	10.8073
43.9577	377.468	10.7345
56.2794	28.1952	28.1817
99.0311	353.823	86.278
95.7315	92.0606	10.9755
33.6818	497.301	57.4089
15.5456	258.35	92.1953
41.7079	269.076	97.8371
55.4477	135.757	90.4401
2.97521	189.128	5.0672
86.6706	256.073	41.2456
89.4414	257.709	31.1648
49.719	234.467	42.3227
20.9287	77.0836	91.4799
72.1597	107.563	28.4658
69.9716	322.586	57.4951
46.0747	303.07	80.6544
17.0593	91.1726	71.8628
79.4371	433.846	90.1144
88.85	263.859	5.53911
14.2515	487.269	86.0098
93.9672	142.742	0.775546
0.0260855	474.541	71.789
43.8805	303.803	71.0901
1.11678	388.244	17.5537
23.4516	31.741	86.9655
70.6984	295.579	15.6562
69.4164	449.879	91.1964
26.5121	254.894	23.3808
32.6574	266.417	68.6059
9.32339	399.288	63.9899
4.15994	327.548	15.7594
75.928	231.529	28.9686
32.4874	278.659	19.8522
52.1822	371.517	93.1812
95.1888	257.161	54.0734
66.8978	60.3912	95.2564
47.3122	134.043	21.7463
64.9372	462.43	64.5033
66.5636	294.699	78.6224
23.0147	269.612	40.0258
80.489	468.633	83.6795
50.2785	127.814	16.305
43.403	455.95	20.3313
70.9034	278.558	34.398
55.5264	369.342	24.913
25.5004	342.16	34.5701
7.52006	69.8529	98.638
58.9102	486.744	62.3951
67.4242	212.27	59.6264
58.8013	38.1058	57.7292
53.3702	53.9631	40.3034
47.2616	486.121	54.5446
32.3811	285.177	77.7425
43.0986	241.912	47.0403
76.4898	322.495	8.83874
99.6463	109.102	93.3904
26.5018	347.451	4.35985
79.2067	122.878	64.8696
13.4609	316.81	73.3023
3.55361	480.069	9.32238
45.3946	363.211	78.5547
56.2977	484.829	92.4824
23.0883	381.07	56.425
14.4762	262.548	45.4247
67.7096	223.395	79.3536
35.4071	319.181	28.3779
51.0472	153.569	99.2102
69.4707	221.703	98.5979
59.5293	332.635	53.618
50.6111	411.139	89.4398
77.6399	159.511	23.5551
68.5203	328.523	47.8506
31.9494	252.702	90.7567
83.2143	78.723	66.3745
66.0822	152.538	43.5754
58.7068	52.5506	85.3989
1.90784	435.311	39.6035
83.695	339.475	46.8605
11.3998	413.438	44.9999
84.042	473.035	32.3984
33.7497	315.302	87.0819
42.9436	256.701	88.3295
79.3779	277.997	34.301
14.1567	493.715	95.3921
60.8102	313.451	30.9728
93.0629	426.008	93.1514
63.6444	245.125	16.1898
4.77707	9.97938	95.2939
69.8346	121.916	87.8519
25.711	275.038	50.7171
69.0902	50.7835	1.82444
36.318	237.156	77.8155
54.1884	87.2656	35.9457
22.2142	162.692	84.8549
90.5487	55.1932	43.3062
37.3541	214.118	60.5782
7.88165	359.495	37.758
3.09299	383.808	72.141
62.6901	463.593	31.6173
93.6997	378.477	94.9351
31.9935	166.249	84.9746
74.5175	440.28	77.5598
28.8928	262.805	29.9517
12.4354	133.67	87.2699
51.4081	84.1084	37.5083
38.7512	22.5056	79.842
97.861	85.3875	81.6787
29.1818	462.888	99.9013
59.2343	54.3118	4.50888
57.1356	417.075	23.6803
61.5856	75.9075	43.0906
56.0914	427.938	84.724
27.9859	299.284	38.6435
15.185	98.8841	12.2807
73.3013	398.765	91.5262
3.96985	393.693	18.2328
80.1622	47.7925	59.0777
40.6417	85.7239	81.235
83.0011	301.406	26.1161
97.1035	162.549	98.5808
42.2483	133.642	44.1257
5.39048	394.65	22.5261
78.7037	308.307	18.4719
63.0077	343.232	69.824
50.8819	348.717	87.5195
56.7686	466.01	76.8964
30.9191	60.094	26.1435
74.7136	303.443	98.5706
33.6661	244.934	4.4184
88.3354	264.851	34.4146
33.3656	110.935	67.3185
79.6015	374.09	5.67342
80.4784	129.077	5.45707
5.02387	99.557	56.4865
40.2505	435.762	65.0946
96.5192	13.5928	23.7028
41.4376	18.1701	62.6916
33.0524	218.997	53.0038
63.6372	32.8438	51.4284
85.8025	489.693	70.1628
78.8284	314.45	37.3691
53.841	328.164	61.4033
74.167	163.953	30.7287
73.9721	237.75	9.2897
44.4795	8.12091	66.2921
85.041	100.014	2.85752
49.4535	429.247	38.4545
94.8158	33.7701	7.20519
79.7788	155.374	29.1918
13.3045	413.311	21.316
23.777	305.934	72.1997
12.7723	457.3	70.5025
53.412	442.055	71.512
5.66967	122.657	36.1223
46.8575	479.101	54.647
98.2688	226.148	35.7832
68.2221	444.279	94.0956
87.0901	232.425	44.4792
49.6211	292.611	11.0819
28.7662	5.83951	86.5122
18.3019	364.218	3.5555
96.1219	207.65	22.3264
75.6261	59.3187	13.7963
95.0353	298.128	30.2575
67.1267	2.34393	25.4192
18.6055	469.727	73.1184
28.9842	345.706	63.7686
5.82078	135.899	97.5245
4.40662	376.869	33.1082
27.9559	329.166	42.0691
17.047	141.855	48.0426
67.7101	267.807	90.9834
90.2418	30.108	57.2125
35.1987	338.714	42.4836
10.0159	461.442	45.4418
79.3002	233.319	95.1208
46.8432	184.405	58.2946
68.7341	458.697	39.1435
68.3079	5.78652	55.8078
42.1436	464.618	98.6554
65.9343	346.709	78.3623
63.3427	410.619	8.82224
52.5146	428.868	37.8498
19.1281	55.2884	76.9505
51.1906	352.5	19.9408
74.833	275.833	35.3076
41.9827	260.314	21.7679
73.7479	156.866	0.330515
68.6468	80.7075	19.1625
95.5726	159.864	45.0239
30.7906	335.533	68.1829
34.2301	261.975	46.8066
38.7034	303.9	12.8376
2.61759	380.157	80.3684
63.3546	81.9313	7.5973
56.5251	247.181	12.3078
36.5511	382.344	87.1057
42.1459	150.406	68.544
46.22	419.433	51.1908
31.4439	339.904	61.6499
22.5662	164.231	83.2547
11.5937	269.132	1.05682
13.3966	418.908	52.2007
94.6523	121.488	38.3859
49.2433	9.74203	5.87556
74.8214	303.739	71.4305
31.0935	269.397	77.8116
0.770528	113.175	71.665
61.5622	459.971	11.985
35.7573	467.998	32.363
64.8829	244.315	86.6184
84.5977	348.814	67.5169
10.1353	258.293	23.9316
58.8302	142.617	2.84746
58.2382	4.72524	26.3856
52.1804	146.475	74.8558
45.46	333.242	43.0818
96.6702	77.5462	95.0183
18.2307	112.789	8.4484
55.9392	438.811	1.64285
62.6474	302.864	61.461
3.013	323.407	21.3516
64.2273	34.5914	75.366
83.8161	109.273	71.2053
39.5136	389.997	40.653
43.7342	314.539	24.2931
8.48828	35.3082	52.9312
58.1377	328.609	79.2373
87.1682	259.83	77.1542
20.6907	473.765	37.2952
9.461	10.4253	43.6001
18.7952	364.359	98.6685
66.7837	199.259	89.6192
73.2421	343.623	73.5465
63.101	36.5435	22.0711
46.8206	379.023	6.91363
31.4362	25.3613	8.85896
64.1467	321.205	26.243
56.2027	250.387	15.1458
66.3727	265.045	36.414
12.4877	369.126	68.1044
67.4027	137.284	10.2128
68.0311	119.018	88.7078
93.012	379.972	46.7242
82.882	480.047	53.4878
17.81	83.1032	8.11183
94.9241	189.297	13.8554
19.9623	48.4012	3.20833
21.7681	467.281	27.342
0.852194	401.458	76.0617
30.0627	365.103	93.873
27.4471	397.357	1.53163
58.6448	286.785	6.42945
39.6553	180.845	66.7291
18.6403	80.6668	56.2792
39.2816	443.185	23.6515
15.4594	450.999	89.2676
83.2304	379.291	46.1609
14.9752	180.896	60.5184
67.9546	248.112	31.4501
75.009	329.343	13.4871
1.489	144.483	92.8123
14.2246	71.5286	95.7911
3.06556	154.067	98.9271
80.8696	173.721	22.2674
4.7146	69.7692	36.796
66.6181	108.119	71.3168
45.6032	277.911	2.9266
80.2996	25.5919	59.6404
35.8439	208.676	34.7655
2.5334	355.79	44.4995
21.8588	439.637	14.6103
71.0915	300.74	17.6703
54.8921	232.486	58.2891
86.9693	407.71	41.9112
73.8836	161.062	30.2615
10.323	188.195	45.4971
97.1433	69.0079	40.389
73.8713	326.796	89.2284
1.38576	12.746	42.059
67.9122	116.843	74.0937
48.5503	489.391	26.7468
3.47184	471.511	24.4247
11.444	490.532	16.536
7.66251	33.482	60.7166
60.7825	97.6287	61.5072
23.3466	211.703	92.751
14.2011	268.538	95.8222
53.0173	231.639	80.1808
93.0301	312.955	61.2655
61.6903	251.28	88.8404
68.9892	395.889	51.888
23.4426	355.176	46.3331
20.6844	284.702	24.6202
3.73663	78.5494	75.7983
66.3365	312.802	59.4863
50.7255	462.917	0.487276
48.58	491.599	65.3198
86.1695	361.587	95.5331
96.5515	93.7792	49.8737
75.9688	430.066	60.4601
24.6679	64.5299	71.3503
67.6267	371.736	6.29768
75.9305	23.9392	18.244
58.619	324.85	87.8018
82.2439	29.7686	78.5639
92.6835	459.881	93.8705
63.7567	85.8623	30.0211
1.89379	44.0232	85.7207
18.4341	152.271	81.7726
2.67407	335.798	83.0411
93.4999	102.222	43.5451
48.4467	487.405	54.0584
79.4786	19.7798	91.3597
45.6835	245.896	59.7723
49.4209	320.466	0.687106
42.5714	202.508	27.2339
89.1772	28.541	13.7467
87.4285	315.168	70.87
63.315	107.291	4.1507
29.2279	314.855	43.6744
29.1678	197.28	68.0357
24.55	398.054	55.1741
70.4348	439.518	17.794
77.4612	390.039	8.55453
82.2654	351.241	18.6772
80.619	210.336	36.8764
25.3771	321.928	93.109
80.05	39.1545	69.6638
62.9709	190.375	16.6343
23.1502	218.845	77.3501
38.1077	203.476	41.3202
45.3202	136.893	70.8613
50.056	115.676	33.2137
54.0572	368.949	55.1058
34.5145	439.7	99.6468
29.143	386.244	66.7182
70.3529	17.9164	88.895
93.4078	277.158	35.8258
59.4175	294.087	43.4015
59.3091	123.094	73.3049
73.8731	199.193	99.4529
37.2643	403.39	47.6645
45.327	150.918	33.1558
50.9376	244.817	60.5345
92.8711	390.644	77.3158
45.0788	224.988	38.5647
63.7435	416.62	20.3863
45.9364	338.337	38.6674
55.3774	43.3145	6.50316
4.12327	490.359	43.2319
80.2202	283.214	68.9734
67.1512	103.84	50.6562
20.0328	47.8043	71.6917
1.45864	31.2607	30.1217
76.3166	12.891	70.6008
56.7512	167.063	91.5207
65.4214	278.403	70.5798
63.474	422.97	13.3123
73.433	313.377	66.5466
88.7327	299.932	37.5565
66.5909	105.318	50.2442
12.0675	126.957	39.9009
71.3736	325.987	96.0435
44.7227	164.458	11.5674
64.0982	261.587	56.1219
64.8896	62.3583	46.7226
67.8375	226.348	15.8937
5.88276	496.298	52.5198
22.3953	199.614	31.974
16.7982	30.9559	78.1342
92.8529	146.481	6.29339
51.5231	276.136	62.2343
67.3364	370.064	63.7054
66.78	159.202	8.11052
8.14614	246.929	84.6314
22.5073	314.334	86.1936
28.4189	376.573	75.8724
91.3764	346.944	93.7734
22.9102	68.4403	64.7618
24.862	453.481	99.6027
67.6291	189.438	73.6216
64.8491	264.811	5.7479
70.3677	494.308	0.934526
83.7103	479.105	83.0913
72.7296	408.823	33.5008
1.94344	211.948	26.8972
58.3746	408.988	10.8301
92.0877	222.248	18.1664
9.1678	190.13	38.3805
55.4561	353.618	83.7104
93.0803	119.458	76.1702
19.9453	87.8826	98.7245
52.532	119.073	71.1001
12.6739	141.796	34.4843
74.8727	20.3244	53.7592
31.4669	275.708	74.4183
18.7174	471.249	92.9393
98.0395	393.918	12.84
71.2827	120.716	22.0987
82.565	347.988	32.8012
68.322	7.62875	33.8135
68.9402	384.274	86.7305
53.0876	165.946	67.5717
18.8854	161.165	1.69835
49.3016	382.719	51.7439
55.954	192.082	51.2296
82.828	109.313	39.6039
20.2869	281.661	92.071
52.7746	110.317	99.1757
80.7811	81.3185	55.4696
35.5104	199.82	57.0801
54.7755	10.1975	23.213
71.7438	211.635	79.8207
20.2512	1.63665	23.7841
64.3757	22.43	57.3311
0.0089016	94.5621	61.9432
51.3177	100.668	45.3728
56.9829	300.175	75.4413
0.70367	115.861	56.587
89.2472	283.274	77.7865
83.3194	275.375	73.4193
77.5165	169.003	96.5407
78.8136	494.962	76.3001
37.363	74.1796	56.686
15.2312	425.644	59.9695
35.226	393.59	59.1279
64.5098	262.15	96.1648
93.1937	9.41948	44.1617
9.3321	131.726	69.2481
73.8778	499.295	23.5857
5.52674	355.27	77.0613
75.7158	109.045	16.0001
46.3489	320.806	7.86548
4.50044	60.5341	31.0656
84.203	278.341	32.4245
16.4712	393.984	17.69
11.5074	207.251	24.6012
27.1561	41.8322	99.1839
31.4386	293.553	61.1304
60.609	319.633	48.3004
67.7467	62.5774	24.4266
98.7642	432.631	97.3911
99.3261	243.892	71.5416
75.7536	138.009	69.839
27.506	155.736	17.4839
95.4014	333.283	47.0388
41.1082	250.049	80.509
21.6623	222.069	10.9709
62.913	162.791	79.5011
1.4869	282.962	86.8028
4.32998	7.61136	9.7349
18.0262	276.417	6.58448
20.0465	467.912	6.02827
71.9358	240.886	45.503
44.2868	164.238	87.9422
84.5493	401.541	34.7853
38.979	71.7328	43.6686
83.7552	39.3114	13.12
74.8419	222.704	65.3399
58.3861	232.755	53.7491
16.0574	368.339	72.9113
52.884	349.519	13.2127
46.2671	266.545	89.42
37.9544	103.162	45.7947
9.323	78.4836	10.0627
25.9145	201.12	40.1038
33.5837	218.788	86.8277
37.5112	487.532	95.7447
14.626	463.372	2.13951
31.677	154.032	94.4959
28.1225	431.291	92.1909
82.0124	280.114	61.0962
34.209	272.081	49.0169
87.2002	421.14	44.4751
26.8029	393.985	39.6819
77.5432	268.186	15.1912
60.9209	0.915192	87.0169
1.79688	185.076	48.5674
70.1511	218.06	85.9897
1.57523	316.601	72.8215
68.3893	73.3887	54.2568
87.7902	282.684	63.0758
43.1806	201.558	26.9076
63.1343	26.9909	59.1812
58.6041	67.9924	86.6305
22.7411	195.255	92.5545
78.4655	228.778	95.112
28.7636	165.956	6.67045
92.4376	428.666	94.6138
29.8475	303.578	49.6633
53.6303	98.5592	6.80274
33.3647	71.7605	15.3642
23.7294	383.69	29.6073
54.5239	326.362	16.8749
10.7686	171.14	73.5195
13.7155	28.3055	87.9697
9.44275	210.181	85.1423
31.0884	230.432	67.2029
81.2636	267.751	79.8496
51.3558	414.211	10.048
86.6476	499.185	52.2669
98.0487	191.203	5.86883
32.6653	95.04	81.3646
21.9617	496.196	34.5685
51.8224	339.968	82.8924
35.3006	467.448	72.4963
85.9477	318.205	33.7294
26.0021	324.352	21.1464
84.3721	191.306	33.984
58.2802	13.9368	45.9292
71.9406	296.533	52.8747
34.3524	365.653	40.1206
0.927392	326.562	75.1922
19.2446	30.9808	2.69389
50.7388	76.5204	37.4649
2.42418	377.827	18.6681
55.0041	247.917	37.1982
27.6184	192.185	33.0848
69.6241	144.159	1.85119
88.1353	93.1832	68.5231
2.46814	473.669	67.2338
34.1206	199.028	83.3036
42.1406	69.5758	43.6388
8.00112	270.686	63.5741
7.93538	15.2582	66.5115
7.23762	274.225	35.5773
90.0341	198.294	31.8535
96.9308	380.473	68.9773
39.1307	81.3923	2.6314
31.3585	234.05	93.9921
55.3314	296.822	62.6543
79.2048	42.6672	13.5101
79.8314	248.57	93.8513
86.3259	388.449	46.7858
79.7962	66.909	93.3204
0.637641	350.097	97.3247
91.9901	415.366	28.4362
1.79622	256.574	53.8809
2.94165	2.40691	1.25754
71.1452	178.356	15.7151
53.8414	486.511	35.1647
52.4589	72.3288	77.3127
50.224	387.383	32.0201
6.56725	180.49	55.3478
23.0041	140.789	38.0122
11.704	271.705	75.021
98.9771	203.619	98.5073
7.05165	460.152	44.7117
6.00237	178.45	7.46274
66.1577	56.2546	10.0438
34.4058	127.542	33.6226
12.8513	77.8386	29.2209
63.7136	406.555	91.6975
74.6488	314.819	50.4762
80.5267	329.687	57.9224
26.9027	332.059	5.1684
43.398	273.639	26.6767
40.1806	142.975	78.2877
60.8142	48.6566	53.8028
77.0087	415.609	93.9762
94.1124	157.51	53.761
13.1465	299.392	41.2949
25.5723	234.384	96.4089
37.8311	329.106	59.9124
99.3736	130.5	94.1266
34.0951	142.265	76.1007
89.9552	345.528	11.087
23.7482	486.739	28.5133
22.0001	141.279	21.2597
99.1076	426.997	41.4766
95.1105	450.664	50.1671
63.8217	418.877	84.1204
50.4131	376.14	77.9606
35.8118	129.566	58.3654
76.8452	473.569	51.8982
78.4363	423.566	29.908
2.89181	421.187	69.0152
5.24412	388.578	62.7909
32.3419	236.878	77.6412
79.9687	425.583	86.7994
63.023	464.592	2.64464
98.2798	12.1218	61.5516
15.825	364.544	19.8292
61.6676	233.16	86.4764
30.8717	295.597	92.82
8.50785	492.249	84.7255
87.683	423.504	3.88063
59.0701	488.349	52.722
30.3123	172.428	36.3823
16.807	138.682	7.01278
33.9877	158.204	24.8258
6.74461	168.244	5.90644
65.349	274.05	23.1343
24.4286	142.603	93.544
75.7918	457.93	80.6716
29.9014	335.342	3.80684
41.8815	392.746	96.8146
5.58322	91.5027	93.0047
3.08563	70.4429	4.59226
18.658	27.8723	32.952
27.0906	309.187	71.6521
6.62433	294.971	3.14579
33.3494	187.518	24.2843
4.99056	11.3091	30.6536
10.1309	79.6256	83.3999
7.18698	253.386	52.1829
90.4513	393.586	11.5485
31.1798	381.019	13.9302
59.1769	467.162	40.4541
37.7625	397.59	15.9314
95.1564	227.131	94.4453
74.2395	172.199	12.984
88.7093	66.4299	22.7778
59.8896	280.617	2.67462
68.963	103.808	89.0789
39.1117	59.0033	72.09
22.3274	383.827	20.4048
13.126	228.628	34.0586
17.2478	362.922	59.629
93.8598	53.3628	61.2485
3.4482	219.571	6.57475
87.9557	278.694	17.6573
52.2327	427.792	17.345
80.8247	455.965	85.6475
44.758	175.665	57.9538
34.6539	186.181	20.1831
75.7151	51.1177	67.5428
36.0213	328.797	9.94686
55.6607	109.405	0.411218
88.8721	433.216	56.1702
84.0164	196.702	35.6471
24.4027	226.942	43.1978
43.5618	90.8769	27.4073
82.8553	33.7193	50.5807
15.2703	392.277	26.296
75.7954	400.933	0.582414
87.6508	231.709	92.501
50.2124	426.211	49.4493
57.0267	312.824	22.1063
85.1482	90.2455	88.5053
98.4643	15.0351	12.0335
79.0214	64.8892	53.1993
35.0683	157.803	17.0326
50.1905	365.767	96.5588
25.5212	386.49	94.5126
50.9872	74.2844	49.1663
7.86199	397.9	16.7259
5.58993	82.6726	71.0888
63.4988	358.551	75.6771
61.6903	39.2784	47.9871
8.14735	196.933	83.6508
60.9521	407.915	83.708
54.4671	264.988	57.0325
85.5922	473.678	78.3084
64.269	158.34	47.5748
27.1633	289.083	77.7664
10.6751	95.1145	89.5995
6.05134	196.131	95.6421
62.1883	499.378	13.1302
69.907	171.844	62.6415
27.494	454.285	74.9588
42.1969	348.833	19.0879
36.5823	14.8851	44.3757
8.21587	240.639	29.1998
6.97698	338.453	43.6021
12.089	201.241	67.9946
67.7853	77.0455	25.2995
21.8936	280.584	87.2142
23.728	474.663	53.6203
0.863462	479.648	91.2387
72.7111	494.97	46.5915
56.1034	418.007	37.3135
55.1973	327.04	69.3489
74.2254	434.586	75.6916
82.4633	431.886	90.8452
39.3395	380.962	6.23008
13.5944	82.6338	78.3457
19.5743	39.7371	16.787
72.0299	254.447	83.2849
66.9635	46.5201	12.946
5.98496	218.93	49.2048
38.4277	155.986	83.937
49.1236	189.575	57.8569
77.4162	497.796	27.563
14.7811	434.746	36.2343
48.5534	473.953	53.4342
7.18349	127.152	93.8207
78.7444	24.2458	28.3312
39.3732	415.919	63.9808
23.6161	344.363	3.77423
8.05677	298.011	75.7198
7.90048	107.37	18.7403
92.7429	267.585	50.9629
20.4715	27.8778	59.2036
95.6581	215.525	23.9064
33.9742	95.3691	48.5816
95.9966	163.888	92.062
34.3146	468.829	36.2533
6.34228	423.684	6.35395
61.2473	128.492	60.6514
55.5613	188.603	17.4103
90.645	366.757	63.1263
20.1225	391.112	35.6818
78.7694	5.81853	69.1072
34.7719	110.853	5.50319
97.2151	33.5359	32.6878
83.6052	352.827	61.2816
71.1806	437.967	98.2823
21.49	138.741	45.4661
1.54477	346.402	25.3328
21.0044	69.5068	3.72224
53.6468	187.385	56.477
10.8458	417.939	4.57094
85.3762	347.874	93.7787
91.0851	347.45	45.392
33.3725	426.681	86.9659
46.9143	147.294	92.704
0.289686	325.484	68.1522
31.0908	149.314	35.7243
48.5222	472.339	80.1645
26.2165	390.395	57.6258
68.3112	412.509	68.0264
91.1186	368.092	58.2427
57.0502	396.836	90.9062
26.5278	202.579	89.8367
92.8472	65.306	45.6335
6.42448	79.7782	18.2168
62.6302	408.322	32.7846
94.8279	15.2771	2.37894
51.6393	271.996	0.717053
95.6704	411.749	80.3532
27.2021	474.199	24.2549
52.699	230.134	79.2569
91.1192	34.7502	79.9
21.4685	261.2	20.5029
82.6785	97.9286	49.1708
13.8328	149.356	85.0047
43.7751	487.858	62.5678
87.5283	82.658	21.4782
70.4312	388.675	97.2774
49.7022	170.689	53.6885
60.9597	237.051	83.4641
7.78284	50.1183	81.5554
24.1433	30.0908	55.4828
2.57842	430.86	42.8528
84.6477	35.4358	29.2306
1.48628	441.398	80.2653
55.0416	196.92	98.8765
11.9671	220.025	50.8386
58.7949	175.366	19.0799
62.2211	16.1755	54.1161
74.7018	362.783	24.8695
30.9928	176.745	39.1546
91.6504	320.53	20.6597
78.2266	385.795	78.5773
10.1047	338.54	47.3173
28.1105	242.936	47.2986
90.7505	406.065	71.8192
11.1087	37.9984	12.8005
78.982	14.1664	95.0803
10.228	216.754	73.484
76.7944	71.739	61.8638
66.2055	404.019	56.163
77.3098	0.877377	22.7763
93.1981	48.1108	88.5068
17.6884	210.838	51.4032
2.04218	117.557	41.8641
83.3639	478.151	77.5304
47.3194	185.744	69.7214
10.8646	245.66	99.0275
8.90544	133.755	59.2911
11.513	288.14	15.6334
16.7973	260.023	13.079
97.251	489.435	17.0357
28.6004	330.37	6.60196
59.9024	423.121	37.5279
85.2209	43.5718	72.6359
24.4785	211.438	38.9104
72.7168	20.7032	3.6016
40.0791	301.066	0.565423
31.0601	365.723	65.6161
65.3799	341.314	75.2658
39.1825	30.516	6.7614
11.9336	338.251	33.9271
97.8538	153.538	49.7392
51.8252	174.147	31.1824
50.7769	363.25	67.2019
32.5022	53.546	80.8391
19.7272	126.25	67.6905
86.2893	219.465	93.0723
26.7868	293.59	63.8918
53.8681	153.503	57.2912
55.1466	217.735	99.0677
96.3257	155.168	5.45517
26.9576	457.984	8.50608
26.5718	329.21	96.1251
30.999	88.4533	40.5432
55.7298	322.552	68.528
37.8189	17.6464	40.6041
24.5765	391.303	99.4992
67.6179	0.901993	83.7892
26.1294	192.258	24.5992
96.1486	336.234	41.6477
49.7577	19.7453	36.9977
42.7772	217.38	79.1801
56.7792	87.1904	3.21087
61.3038	291.606	79.6476
80.6993	95.5179	3.4056
88.0783	191.82	1.84653
15.9978	441.09	44.7451
8.91769	0.92068	83.7516
