1906

-146.857	797.345	58.152
-93.5041	-598.903	-102.828
-30.709	83.7397	-218.256
-178.789	243.19	-70.6652
10.8918	-255.426	-6.02827
207.219	489.177	167.598
212.904	-672.843	-65.4552
57.4983	920.907	116.025
-49.6461	-323.457	83.4843
24.1857	515.485	116.394
-112.468	-960.925	-64.5196
57.0207	121.192	194.848
-196.21	600.144	191.61
195.905	77.797	-12.3064
162.795	234.371	-45.331
-43.0509	-958.429	-114.244
-171.247	964.839	-33.6929
180.268	631.939	73.3668
211.251	-557.473	-3.16708
-202.96	818.464	181.502
-195.385	-624.517	198.31
52.056	-367.591	-6.01677
-85.38	535.679	39.1771
-105.521	924.853	-196.708
-28.9613	749.676	22.213
-112.165	65.8579	111.989
-71.2545	-552.02	176.445
191.877	-529.015	95.6482
-103.162	875.063	-190.22
-161.724	939.343	-219.977
-180.05	-159.926	49.3075
-14.6795	530.799	126.103
-139.869	-944.061	167.794
92.8747	-650.058	85.5681
-50.8285	-492.579	-156.877
-107.534	556.005	-57.8518
57.9485	-966.424	-217.636
-72.8767	-276.065	112.731
-97.5187	111.239	-200.921
74.6147	-941.46	122.015
198.274	180.866	105.463
-65.2995	893.35	-15.7176
-111.036	-621.568	-161.159
204.176	852.315	-96.0474
-174.823	467.267	-35.4555
-99.7835	969.213	191.356
-165.614	433.717	205.327
91.5537	309.817	182.435
-214.756	-772.951	-46.8487
-38.6541	24.3246	45.0842
218.54	-680.505	61.5948
-126.729	-376.335	62.9677
210.762	-626.896	-139.821
168.703	220.884	-74.7249
-139.734	111.583	-141.282
-159.16	-102.791	-10.774
11.3139	57.212	-189.295
147.228	-658.272	-11.7618
-119.058	672.217	169.28
-136.307	-358.35	-172.768
153.106	963.246	73.4748
-149.722	892.884	-167.81
20.0226	885.215	116.596
32.2755	-636.829	47.3134
168.534	-82.7369	119.791
166.168	-555.36	95.4273
-65.8243	238.063	-172.4
213.626	-380.014	113.725
172.838	729.527	83.0668
167.822	-70.8281	-133.766
15.2465	-517.318	100.598
124.656	-679.085	-121.152
99.2559	247.223	198.611
152.297	-225.982	-81.0128
-145.919	-70.6656	-203.485
-147.638	347.242	-92.7776
-130.278	-934.376	31.2758
-90.1027	948.597	-186.602
-176.747	-665.793	-11.9244
140.472	-671.738	-188.936
119.691	541.229	-113.593
71.877	-943.568	60.641
76.3029	-261.117	-176.388
-29.5942	-24.8492	26.8609
11.2378	-517.475	130.371
176.074	202.495	23.2045
219.93	-346.83	-148.777
-190.324	-110.725	113.054
186.303	364.388	170.772
-69.899	366.008	168.257
-219.323	-316.946	213.984
130.62	653.531	-156.906
-196.086	-922.039	-94.9413
8.09257	535.851	41.9
-42.1808	-14.1213	-52.1909
-140.327	-236.243	-156.058
31.0668	96.4657	151.585
153.877	-199.631	195.534
-212.018	-732.067	-93.2378
24.2045	668.779	-194.92
168.441	-267.441	-139.434
-20.0681	-258.548	-97.6949
201.594	-215.457	215.507
178.184	-308.219	-198.182
-38.9614	-916.799	-50.7685
-104.498	-545.578	-62.0353
64.3158	474.25	-11.4358
-183.059	-958.868	-103.86
-47.2739	-408.596	-149.017
122.049	-74.6268	192.645
171.903	734.318	-1.80013
183.546	446.765	-132.176
202.929	914.075	189.681
79.1253	957.893	-49.6047
213.573	-769.699	-5.81973
-139.885	47.0688	-200.824
-190.461	749.754	105.234
132.643	294.593	-11.281
16.6451	-593.417	-0.608143
-134.271	665.022	64.7609
-98.5984	33.161	-213.463
58.4282	-552.445	165.975
-50.9857	-410.421	60.4815
-112.63	654.926	-70.9279
85.995	774.423	109.043
-141.4	-376.646	168.502
-3.87509	493.828	126.243
-13.8357	-254.171	40.4691
-101.106	358.442	172.717
-124.624	456.644	-8.67969
-56.0002	748.075	-2.9428
218.666	706.183	100.641
-179.103	590.201	21.687
125.271	-555.246	-179.524
-159.568	648.895	167.587
-192.608	391.782	71.182
-89.6652	-583.175	-11.0957
-74.2547	607.834	42.8446
-14.9552	146.061	164.185
-133.147	-50.4128	111.725
205.223	62.2798	21.6502
72.3235	-639.342	-195.526
-11.3945	-132.714	-150.907
-42.7938	-334.005	-156.886
-159.536	-186.662	-219.15
-216.804	130.394	-86.1443
-58.268	366.562	-107.816
-35.4263	199.052	133.128
-141.711	901.782	206.849
-144.388	-761.93	3.19869
142.116	605.546	2.94802
-48.4802	572.877	-10.6892
45.8264	-116.004	193.334
72.5429	-179.048	56.9128
-4.8522	219.318	2.93244
-133.469	-798.078	-51.87
-100.175	-303.446	151.239
-62.537	-63.7561	-72.0218
0.552661	-503.432	-22.2624
-3.39604	134.287	90.2274
69.9286	442.113	-34.2523
87.3856	220.198	169.846
77.5318	-647.63	150.136
81.0029	902.52	-30.2634
-57.9153	-63.8326	21.5001
-52.1262	702.996	212.986
-91.7207	418.577	-159.257
-45.4771	131.263	-63.468
144.551	-427.958	-45.0717
124.906	-910.715	118.957
-183.917	604.76	114.826
56.0805	-341.891	-101.808
-156.992	-874.027	208.424
-214.106	182.508	164.828
-183.059	664.428	-208.702
32.3757	-153.539	51.2352
-141.953	910.991	145.46
194.767	925.258	-213.791
196.414	12.6402	-118.877
113.882	-643.21	-158.425
-77.4478	-654.547	61.9586
142.356	-622.503	84.97
-55.7346	-322.567	-116.703
154.958	-545.16	187.539
149.686	953.669	-217.095
200.269	-699.606	-141.9
8.13852	55.9079	101.57
125.224	764.648	25.3804
-140.936	-653.066	-216.157
-92.8156	-77.0544	50.0164
22.3461	865.308	-152.232
29.4694	821.191	155.801
-197.282	937.932	95.4975
200.196	128.837	175.539
-136.332	-844.436	25.2225
-210.534	943.911	-200.833
-93.2216	933.73	205.036
-209.045	190.395	-22.1477
120.556	623.506	113.206
199.519	-602.664	216.987
16.3541	-651.465	-16.0648
98.6764	188.762	-157.131
-112.278	-554.428	-210.49
158.744	502.159	61.543
95.988	-740.818	28.0748
73.6656	763.566	21.0765
123.671	-743.465	-49.656
218.03	-493.769	-103.494
3.45274	158.334	112.146
111.897	-537.004	52.2337
122.27	894.254	145.283
204.823	-336.435	-189.817
179.897	385.213	-88.0144
75.4443	-927.182	152.007
137.747	631.336	-40.0808
92.0211	433.598	41.2449
-196.05	-542.457	196.767
-118.205	-507.797	67.6841
183.559	965.697	-1.94432
-40.4868	583.742	206.961
129.385	47.4922	22.4998
29.4196	-680.845	79.7794
107.936	110.54	200.552
-109.924	-688.873	146.689
1.68337	-474.934	-61.9986
7.76716	717.762	-179.097
-135.074	-824.775	-104.586
10.3607	437.737	-49.3095
-73.8606	469.091	25.1455
215.609	-624.456	-15.4984
62.462	-121.831	-209.986
121.113	-138.435	164.87
-206.026	-848.773	-141.154
43.2845	533.75	14.9909
116.844	-819.125	167.966
212.963	318.033	82.4022
207.687	656.867	216.198
-189.814	423.878	85.3469
-207.42	393.112	26.0248
-181.427	39.8638	-9.1238
88.265	959.222	22.8029
54.6337	498.024	-37.4049
102.391	-497.413	165.549
-183.333	-226.087	-219.477
178.546	-105.357	-177.881
97.6335	460.508	-14.7446
111.81	678.801	38.3851
71.7368	-599.203	-137.084
-177.324	-195.304	85.2603
6.69283	612.429	-18.7601
-63.961	68.2286	88.7342
29.5126	-513.68	-205.171
4.39145	608.424	11.34
-34.8976	-531.94	-173.55
184.493	-898.414	-100.453
39.6034	801.949	208.133
-153.604	402.808	-168.298
-124.902	-757.968	-118.14
126.45	-838.728	2.23147
-190.37	582.753	-148.794
21.0366	-98.13	72.1071
86.4761	-10.4939	211.534
19.719	-270.352	143.918
65.6218	4.49581	-164.106
97.7688	714.47	-112.684
97.3767	-458.193	146.293
-68.7163	-922.635	-109.641
-35.2634	344.355	111.922
-88.8067	-502.319	-208.268
204.233	173.155	23.9041
-155.859	-155.163	-199.212
-53.0047	421.551	38.3785
68.1808	376.412	132.682
-197.631	954.253	194.299
97.7847	339.838	-189.173
176.439	-959.072	85.5607
-192.692	963.395	122.917
12.782	21.8067	-89.1857
107.017	514.551	-21.8129
-75.3643	-412.361	-128.714
15.8344	680.435	215.681
-38.0402	662.96	102.636
48.1783	156.697	62.9881
-65.7397	898.661	60.0367
110.995	146.229	-206.128
-78.3315	-85.3008	173.472
-34.0575	-6.0039	-13.3711
-80.0067	562.683	-18.1606
-110.175	-275.775	2.20459
76.461	-464.585	99.1798
-90.5381	-312.311	74.3699
194.823	407.916	5.96427
217.749	458.128	142.114
-6.18376	-141.611	-99.9322
-46.9149	634.543	0.823314
-192.375	681.882	13.2915
134.378	-462.69	39.2786
-119.134	-375.301	-8.3009
197.488	-966.333	110.108
-180.039	-347.484	-33.2067
-77.5817	429.388	181.949
-153.609	178.823	86.7541
117.875	846.795	147.381
66.4765	420.484	-57.4439
198.402	-951.013	-1.92586
-121.417	906.486	-19.5996
-159.199	-720.676	-64.96
215.823	483.843	96.0354
-146.122	153.885	216.868
-184.196	632.396	-215.721
150.196	418.294	69.4578
179.873	253.951	50.9886
-133.206	624.667	-6.7113
60.3369	726.587	-171.924
14.3503	-746.676	-84.4303
-38.8854	-798.257	168.373
204.707	576.773	203.153
-14.1487	332.687	-112.457
-56.445	20.6768	-45.0264
-129.969	388.018	-98.499
125.523	-221.638	-133.721
77.7167	137.088	-156.702
4.07988	-47.1515	3.3738
-11.0352	506.962	162.823
-219.675	-294.447	57.7858
-3.58316	493.45	-21.3085
59.508	-400.668	-143.437
-7.6442	-291.104	-33.7509
-37.6992	-481.457	-75.3055
-175.984	-323.121	-5.31707
-99.826	-239.053	59.9761
-138.443	-223.495	-126.308
-22.4285	511.195	22.6522
219.38	-934.033	217.288
-199.285	911.188	153.501
27.5276	-193.513	36.605
149.2	-90.8456	-5.55831
-197.455	782.801	211.05
-124.221	441.626	43.4374
22.8454	-600.163	164.805
51.7047	88.3457	1.09588
-62.2977	507.055	-169.767
159.283	-54.9045	134.468
-216.763	-490.645	-154.497
116.723	350.139	124.81
-219.589	-325.274	-193.46
-78.503	153.416	-67.1593
-65.5489	269.638	146.3
-180.535	368.575	-144.41
191.61	-851.816	46.2312
149.782	-333.652	-32.072
48.8554	-217.291	71.2306
-155.639	-34.959	-12.2543
9.27337	-834.937	-175.627
174.221	704.446	-64.3763
-9.42401	429.376	162.105
-61.3395	-78.488	-203.792
-35.7119	188.225	31.979
73.5403	-895.686	-21.6058
-212.067	-41.0922	146.316
210.442	-195.124	5.41862
-53.3382	-697.911	-116.565
1.01783	-547.919	-135.438
205.27	602.041	-28.3593
-128.888	-298.616	-142.78
211.407	-670.679	119.786
-197.73	493.413	-121.852
-213.449	760.588	-84.0044
-85.1128	-427.275	171.861
-35.4005	-355.021	-212.418
-211.865	-106.621	184.135
193.622	-59.2139	168.275
68.2113	379.311	178.26
168.869	-450.249	-214.354
114.367	-729.913	-203.58
-115.697	918.074	158.422
179.739	604.661	35.3651
-105.61	225.315	114.146
-94.7539	673.467	-148.35
158.264	-78.4387	-45.104
68.6499	820.401	205.047
-169.418	857.125	184.437
62.2398	823.942	21.7411
140.314	717.577	155.129
-219.811	-869.869	-167.024
-117.943	156.904	195.639
-5.88911	-725.764	132.931
141.515	-222.834	-29.6765
168.856	600.718	64.9472
192.142	123.798	-15.4029
166.606	14.0122	-58.9251
183.177	-923.103	216.184
-182.475	267.448	52.2777
217.892	939.205	-179.375
-126.768	-315.177	104.848
190.257	774.509	-200.637
-16.624	-950.328	-50.8542
128.792	180.197	-94.0726
215.051	547.789	0.264699
-213.402	658.626	-72.874
-63.8996	277.049	-105.118
-145.493	496.494	81.6565
-120.838	956.852	98.5289
79.2972	671.981	-131.194
208.014	-893.222	-30.1443
-12.2028	-406.082	-159.658
-7.61735	-326.918	-68.6435
-25.656	-857.245	-209.776
68.4734	-472.173	166.711
-98.2826	-394.199	-186.92
-151.048	-430.154	39.4578
85.5766	-713.488	-75.422
29.6623	-54.0241	49.1658
-176.954	-936.674	-132.411
143.878	-819.466	207.423
42.3245	-322.735	8.90618
-116.248	-278.388	64.0905
14.5469	301.249	7.37652
-95.6872	-453.082	-195.85
33.7941	-311.063	174.141
-44.537	858.923	-83.7071
-190.061	718.35	116.024
-172.912	-302.219	139.852
-149.057	-516.365	61.1627
-124.013	143.331	-65.3107
-132.952	-271.438	-105.431
23.0537	-331.657	122.47
184.131	-399.208	-183.975
-119.375	551.827	-184.173
213.035	-434.466	-185.239
-9.76688	-551.65	-218.235
108.009	-140.984	19.8928
-54.0173	635.815	-91.4248
92.7372	884.831	141.594
191.994	-423.2	-121.969
195.137	691.853	191.596
-50.5256	961.682	121.444
64.0653	-683.742	-74.4162
-193.406	605.704	58.655
177.485	-854.721	-120.163
123.708	749.059	181.9
38.2438	396.933	25.8224
210.555	-848.777	70.1396
-210.489	-575.665	-163.686
-14.4921	-575.757	149.194
50.9809	293.247	-97.2724
-126.38	766.918	-76.9887
155.892	617.042	93.2266
90.6348	659.919	-101.83
102.289	780.838	-125.34
20.6879	-902.293	-122.164
133.844	62.7673	-104.987
-201.825	-885.978	-23.7216
-189.061	-657.148	210.478
26.3076	-72.4954	151.638
107.575	-800.9	-25.085
-59.6871	-560.598	100.178
-53.1134	-287.637	-15.5788
66.6921	-14.4688	-105.105
47.2467	-822.776	82.7838
39.2613	-546.58	-60.2727
67.0597	771.85	172.138
-48.8944	-290.169	14.7216
-13.2563	-303.099	43.4807
-112.553	-478.966	57.0523
-122.792	191.008	85.2171
146.743	-758.993	-156.272
-39.5765	-539.656	-215.318
-13.3873	924.389	-122.101
194.456	949.459	191.427
147.472	413.604	187.044
214.186	-548.706	-151.912
11.0557	-210.576	117.601
12.4764	179.269	-36.0503
128.776	-513.58	26.3803
-118.448	-714.847	31.9248
-182.19	-515.652	-45.8774
34.7923	-489.873	-5.69492
209.285	879.922	-145.749
-84.1267	533.582	-6.51101
-180.519	-40.863	-28.9845
-3.11474	126.372	-68.8776
-22.8183	376.482	-167.799
10.7047	-793.229	90.8186
-119.11	63.2144	213.911
-94.6745	358.745	-89.6102
-28.3583	-372.659	-27.5262
81.8163	-431.016	82.9247
205.584	-297.883	-165.017
123.316	384.456	-110.008
-189.978	-756.319	5.54125
177.252	-684.016	139.228
44.1911	863.205	98.3106
50.8524	129.517	-108.197
-168.629	-827.364	-106.798
92.5513	-53.6613	-219.522
204.916	109.033	12.8349
94.5407	-667.356	-189.12
110.605	-653.442	187.215
196.682	-357.32	58.2826
25.5123	755.619	106.225
-44.8292	-496.777	48.5306
-0.238487	824.478	-98.6494
211.182	-757.562	-163.973
-149.487	-334.767	-136.253
-26.5035	207.677	-140.536
143.456	85.6554	-144.154
217.887	-810.4	-31.2645
-107.478	171.94	-48.2173
219.899	221.103	95.9873
31.9294	186.122	112.224
-133.671	-865.289	-213.389
159.312	355.809	-106.353
28.879	-677.528	15.0998
-163.145	-709.268	-201.56
-80.7721	426.012	-124.706
214.859	-183.588	198.567
-82.6512	-965.242	-178.938
76.471	-958.162	150.591
178.373	187.342	-180.199
-111.667	-908.351	188.669
91.3199	-590.243	-73.4186
167.334	-171.299	-159.411
26.0102	637.365	-61.2001
-38.7639	493.107	-2.50409
-123.46	232.762	-59.549
157.46	700.897	-91.3846
-78.4115	-253.417	-204.337
71.8461	483.392	170.373
-198.696	-686.531	-7.44285
146.952	-333.739	-121.184
-61.409	62.2903	-39.7363
-117.981	741.167	139.588
-170.923	-794.992	146.354
-97.7834	-132.142	161.729
101.717	284.052	36.5076
-38.4275	923.014	153.673
-62.0078	-12.7895	56.0866
-211.089	-385.427	-88.3631
-207.336	293.018	-46.6159
-81.7464	-300.622	-194.37
162.261	-46.3645	-31.8566
-123.03	-624.936	180.945
-20.6149	-410.095	48.2164
-97.1907	-778.046	41.6693
150.519	789.713	10.2587
122.908	-472.565	-69.1987
162.689	846.592	60.3794
202.563	734.85	79.1134
162.418	-157.547	161.422
-67.8681	-880.508	65.4603
8.54429	688.395	-14.323
-1.38211	-775.109	208.788
-102.752	914.997	74.3418
105.112	266.747	-101.529
186.483	843.821	-119.81
-142.797	252.715	-76.8273
207.916	-111.762	-103.573
95.4483	-471.892	-189.553
-159.004	-368.992	14.718
155.147	-720.767	160.455
62.7217	-194.308	124.495
-164.763	-338.961	-179.531
189.052	-908.535	73.0349
5.53595	-115.065	143.298
-74.1963	-22.0928	-156.509
-179.226	-773.753	-188.017
-164.644	99.6759	-205.963
-42.7095	352.246	-179.079
-19.2232	44.8205	-109.299
163.676	863.877	-15.4858
195.632	947.908	-130.977
16.0157	-456.266	-144.687
48.7448	105.926	-82.5479
-106.081	-276.69	-137.872
-32.6971	118.09	167.621
210.671	153.075	-174.795
25.3273	794.014	-146.451
138.699	-500.178	-1.81255
-143.05	823.325	-213.274
205.294	962.91	67.275
118.51	-104.535	-29.9172
-8.70709	410.094	101.563
4.86666	-365.641	179.324
129.976	470.856	-14.6163
-97.9303	-653.113	201.292
94.5448	-38.326	-177.995
-78.9231	186.072	101.254
-0.656097	677.799	175.101
126.796	-181.969	-26.9162
-2.30072	321.219	51.7895
-39.7924	-594.888	-30.8352
109.935	38.7016	-88.3055
209.929	32.1403	184.606
88.6848	137.515	99.8811
109.6	351.617	-122.751
116.007	550.006	17.1172
-90.6886	23.1553	109.836
-95.5028	-98.257	13.841
207.649	-926.397	126.573
203.045	-190.564	-71.4956
29.0046	-956.185	143.734
121.114	99.5523	-32.1196
-190.847	-1.34059	-75.9542
-117.246	475.941	-180.252
-189.659	-337.629	216.778
152.329	-291.791	130.65
195.647	-737.342	-189.463
-218.202	-717.866	93.7167
168.654	792.703	-218.633
157.234	662.118	198.153
211.026	374.614	-128.859
-1.34283	109.599	186.603
-32.6814	955.456	-18.8956
24.2901	742.964	-57.2567
84.1465	743.744	-104.385
150.774	-954.005	101.551
216.085	447.66	-99.9274
202.23	138.624	89.2932
-173.863	-578.14	-192.764
-116.903	-307.263	-103.179
-35.1689	-771.264	219.951
-75.2183	97.5316	-47.3804
155.831	-738.695	61.4429
50.2428	778.669	-12.8421
-73.5371	53.4648	51.9798
82.3413	342.364	194.572
101.577	-755.618	153.452
-184.452	-726.258	208.478
-8.79334	-905.058	-54.8867
185.733	-865.638	83.6667
15.3103	314.59	84.3043
142.475	264.98	-195.472
-7.34799	403.097	-54.7275
92.4426	189.39	195.835
-78.4723	-434.662	-174.995
-60.4752	-527.565	199.961
72.7401	873.57	166.128
-216.384	789.531	-61.3915
-178.238	-48.7359	-204.752
9.88546	-360.272	24.5711
102.679	-958.215	184.1
89.2683	-150.416	-178.588
-199.818	662.202	-40.9097
-51.6218	-363.255	-148.65
-206.977	-430.324	-124.209
121.721	-341.269	-149.646
-145.171	647.958	-99.0298
-11.8546	620.229	-177.355
-26.8864	-762.538	-216.883
-39.9788	555.185	132.428
-37.6124	868.94	129.403
-188.989	106.083	168.948
-68.1769	366.935	-12.1555
20.9806	10.8045	129.92
-210.266	-417.221	42.8925
79.7123	-558.259	116.091
25.0369	-392.784	140.023
-197.512	-652.017	-179.686
-140.829	-794.128	64.1971
80.7206	-650.065	-142.336
-199.272	-357.297	-189.972
185.774	-589.878	58.609
-195.677	710.528	-198.48
-179.743	-530.336	-216.387
151.623	377.25	213.515
-162.796	-688.22	-68.1549
131.544	137.041	214.322
-124.477	404.45	75.0569
-89.4151	-346.155	-180.332
-123.955	928.036	116.937
100.804	114.943	-188.827
-79.6493	-454.282	76.5044
126.961	-429.45	125.592
24.132	-741.786	-118.667
212.519	558.669	32.9582
-219.866	99.1533	-30.8097
-218.224	-378.791	-172.896
-179.257	-756.504	215.151
-194.042	526.538	-113.991
147.77	-762.654	-51.2686
207.769	-668.364	-160.063
-128.366	67.2124	168.748
141.089	-348.437	-4.39347
-5.1712	280.438	124.368
-128.28	-765.579	154.011
3.27254	-766.932	-139.389
2.25059	56.2033	-31.3708
-94.1729	-111.274	-90.907
30.8407	-152.849	-152.694
120.736	255.08	3.80183
-205.575	-393.771	151.189
19.2109	552.545	97.5298
-157.742	-151.183	20.1984
-38.7704	-884.385	107.69
176.556	6.35276	52.0427
-132.46	832.321	-109.283
138.107	919.643	-128.353
-102.531	284.093	151.032
-108.295	173.302	6.51993
-83.282	-927.625	213.494
171.752	346.027	19.3776
72.7631	-630.131	40.1145
49.8637	-527.194	-171.294
103.701	270.453	171.11
-218.844	270.105	-165.678
70.4845	-762.135	-102.043
11.8252	-320.531	80.1141
76.1389	-739.436	146.425
-190.656	-168.213	92.737
172.053	890.362	66.6066
198.689	-471.848	40.8402
-18.5005	57.0163	34.7184
-50.1602	-882.341	14.3734
152.13	-804.48	99.99
-136.302	-623.025	140.773
175.966	-874.138	136.06
63.6849	365.509	14.5177
156.582	924.651	163.741
41.1251	791.625	-200.689
53.6243	-290.438	204.404
95.2768	635.341	-163.387
-50.1052	-145.981	-213.266
113.094	-22.3897	67.5485
46.368	717.921	-197.995
-145.758	658.547	141.309
-30.7049	-907.981	2.6989
54.7881	95.5477	91.9208
73.2284	-859.6	137.097
-26.5602	391.515	-121.791
-211.479	-109.887	-182.501
-4.69217	-542.865	-89.0897
0.609992	-398.971	-121.55
51.1477	725.584	-101.969
202.239	717.178	-19.0194
119.713	-662.243	40.1838
132.25	-705.515	63.0679
-61.3496	101.94	10.8157
-68.7969	-421.5	-30.6952
-128.209	410.936	149.809
-113.322	-946.848	-107.234
1.91644	-823.291	140.213
-72.5531	-473.95	-216.667
99.4357	-938.066	-18.9667
-208.332	-503.372	53.6293
-215.139	582.707	-188.422
-181.572	-918.334	122.942
-184.025	195.362	-49.9695
91.8523	390.548	36.0732
85.4778	-167.395	140.184
-59.1575	733.179	-106.904
69.1057	-196.124	-38.1522
-55.233	550.301	49.5194
163.26	66.1985	157.925
-182.186	599.23	-197.648
-107.731	418.061	176.526
210.071	110.846	-39.678
-159.731	-339.774	206.353
105.137	225.079	128.007
217.932	-833.706	156.652
-91.4546	310.724	-34.1166
-117.446	-424.458	-159.06
-63.44	660.636	127.54
-88.5811	-334.751	-77.1733
87.6874	517.332	219.812
110.631	823.992	-81.9419
93.6019	383.386	-102.586
-218.191	-165.707	208.724
131.622	-163.379	49.9611
0.682192	896.676	-183.799
117.471	-790.947	-106.429
-152.787	-574.307	3.10839
-5.40346	719.07	166.62
-114.974	333.891	-37.0055
-194.148	542.495	197.388
23.3377	-940.082	-200.707
130.757	238.633	136.856
84.9182	855.628	45.6915
-197.865	703.095	196.961
-122.252	-697.125	5.5264
-89.8848	-808.089	-181.072
184.469	802.231	9.82543
122.872	-715.527	-108.716
13.6481	575.258	-60.519
-51.233	-602.108	42.2044
-132.17	-791.254	123.228
-105.63	-780.81	80.439
-208.708	-912.533	-193.372
143.968	-555.765	-210.959
-164.498	-909.404	87.251
42.7303	-257.416	174.547
-92.5563	-619.403	-192.925
-199.706	-152.791	9.31059
108.861	-544.022	171.258
-24.9697	-126.423	-184.007
106.6	-498.004	-35.0587
-71.9698	-692.922	-93.1009
139.096	-278.252	-194.825
8.33356	-691.763	-109.764
-24.4309	284.275	216.663
-206.331	412.534	119.817
200.56	819.198	-9.08009
-6.4232	-846.974	29.9992
-9.24692	-325.852	172.7
162.751	-192.46	19.6705
142.829	-780.983	80.3771
-80.1644	913.322	147.998
87.2461	304.924	-27.0444
-29.0505	720.308	146.395
-67.9902	-409.929	121.47
37.9558	-171.579	-74.4096
-78.7543	731.62	208.136
-102.183	84.094	-150.056
-79.1942	-389.357	-109.762
-33.0684	-343.754	122.174
153.616	-540.231	-60.6569
216.211	-323.209	-125.436
127.423	-528.34	-78.7693
152.715	-680.931	-215.829
93.205	-136.501	-33.334
149.779	725.701	-165.885
-174.384	-128.149	-142.068
179.316	-550.527	-85.4076
112.841	413.719	118.909
92.6423	686.762	102.747
52.113	751.299	-66.8932
-124.148	-162.41	10.0741
-84.4353	-40.9351	48.3212
-134.609	941.971	-33.4746
-74.97	905.809	-91.6716
29.9734	-810.337	187.466
46.8836	-493.327	-174.473
179.877	621.539	-197.072
193.714	653.835	-23.1779
52.5678	253.686	148.002
-143.893	616.919	-65.5518
35.479	300.635	153.487
155.49	-360.665	-187.201
-201.029	-664.691	-209.309
-74.3401	-301.525	-156.043
73.7961	734.572	-12.4119
38.8811	800.59	128.959
95.4665	-698.063	47.1202
-5.59329	530.109	-4.07915
-46.1783	-205.102	-107.317
29.3309	27.8906	-177.408
-121.394	-425.742	97.8558
61.3934	-540.571	-140.416
-143.452	-62.2685	-123.07
-202.525	717.042	-47.1614
-113.879	-968.348	180.593
44.5676	-6.59154	-137.219
81.7884	-222.664	218.402
-43.1463	-79.4258	153.808
-181.071	503.876	41.2721
16.1464	-286.142	-136.977
-88.0552	477.663	-119.528
-39.837	771.183	161.171
-109.75	-885.425	-214.212
-8.24393	169.788	-200.046
207.672	68.8578	136.761
120.892	-578.51	12.6257
92.8977	223.993	20.8089
33.1609	-442.719	-117.056
-23.475	134.214	116.31
-205.905	-886.004	-95.4594
-56.1265	-917.505	82.5965
111.831	-57.97	-26.2117
124.482	87.5559	132.621
20.0128	860.302	133.379
-56.8305	564.363	-201.363
-140.231	-879.253	-31.6097
-79.9719	-514.163	60.515
189.276	81.514	194.666
174.37	-205.966	-168.576
-194.423	776.644	9.75058
19.5827	-810.374	48.1265
-15.6039	876.913	215.572
-27.137	481.646	51.042
158.864	365.039	-41.4615
117.006	-439.323	-138.583
-129.964	-793.035	-181.59
-172.542	-66.653	-154.977
167.814	629.718	211.282
-141.921	185.004	58.8178
-81.9657	249.807	-46.6102
2.91833	553.467	146.882
133.487	-969.639	-42.0519
-134.637	830.73	213.373
-161.042	919.397	182.22
-29.1532	-868.906	47.9435
-94.9822	-576.923	-199.15
-76.2991	101.016	-96.6396
-70.4765	-60.6182	-160.635
76.6393	-925.048	207.626
-26.365	724.226	-100.21
-201.172	-248.677	142.15
-188.659	498.931	-182.64
194.003	-602.371	-152.715
129.621	-823.9	-33.2665
-14.8168	-895.918	-164.065
-153.438	31.639	-22.3742
42.4879	-624.283	-186.535
-146.688	-279.872	-24.7929
182.869	-554.639	204.503
-126.599	-469.443	-15.5756
100.687	396.319	92.7541
-7.05342	613.814	67.6007
145.486	-868.658	-25.1843
-83.1562	589.305	-151.607
211.69	-468.015	-148.162
-62.0957	904.801	-64.1469
204.18	-45.187	207.802
-192.534	-745.823	87.092
-150.357	74.2571	215.671
52.8638	-558.815	35.9357
1.36176	965.531	-134.098
217.441	267.406	5.24447
214.964	-798.421	65.711
137.923	606.113	-193.08
-166.073	481.183	24.1469
-122.633	-918.422	6.51982
7.33393	-501.001	202.932
140.444	716.397	-138.31
-49.9759	297.765	15.3916
4.0515	211.345	-100.988
-215.139	463.529	187.541
-133.256	-696.079	-33.2883
-96.31	817.472	196.443
5.02827	-151.751	184.95
-117.755	174.659	-194.425
-202.496	-369.078	19.8252
-122.781	759.214	-214.278
-108.666	-660.864	94.6679
-140.34	-137.112	92.9722
-96.9545	188.14	155.814
160.71	-792.776	-39.8539
166.759	755.049	187.888
153.739	-259.216	73.679
79.8918	-555.477	78.4853
83.5053	490.5	-126.927
61.8517	673.128	6.98237
148.941	957.369	125.245
31.2162	842.118	-117.467
60.5373	-449.957	72.9264
100.651	741.933	-174.706
-159.614	550.179	-162.963
80.9726	-433.163	-144.059
-18.1629	-822.739	86.8955
-139.754	99.068	-32.055
-141.549	-598.01	117.185
108.171	410.514	-168.437
214.95	271.093	-127.32
-91.6625	508.605	-131.972
-219.013	347.007	-33.3132
204.888	-462.44	-215.369
49.5652	-354.167	111.546
178.044	690.595	31.0579
-51.1191	425.332	-9.02874
-187.074	-709.987	-47.7676
99.8727	-176.751	-93.0708
212.928	190.221	-44.557
-130.633	-246.348	96.6674
149.24	-252.962	6.87332
-132.629	-703.532	-86.2744
54.1049	-117.656	110.713
-132.381	30.312	-81.1301
22.5061	378.542	-152.72
-173.781	-942.441	44.0205
-105.088	-785.823	4.98832
-71.9224	-356.25	10.1935
-45.7041	-215.965	-219.867
125.129	400.989	-39.6784
-201.634	-670.626	165.377
125.455	-683.381	208.459
-163.84	87.7888	-100.872
38.7051	-555.313	2.11164
-109.027	59.6752	18.3363
201.871	-182.192	-180.16
-56.2689	-913.987	123.742
-119.796	583.103	-79.8203
150.968	-51.3661	-102.562
-218.888	-30.7105	-172.818
180.713	169.853	-139.163
-17.3488	687.594	-210.014
-206.504	-292.857	-43.1817
-15.4231	-662.726	119.501
-202.434	389.495	195.755
12.8148	56.9963	-67.896
-135.923	543.671	-35.5519
-8.28302	32.6212	-207.646
-60.1164	792.059	217.522
-198.162	-284.774	146.775
153.479	199.538	-54.5836
101.374	807.486	210.695
-79.7591	608.714	118.379
-77.8169	-881.832	155.449
-83.0067	647.361	149.035
-19.3258	-901.391	-118.832
-50.3703	637.194	-33.1987
-90.7426	-871.405	202.792
183.868	-388.734	152.825
86.6391	496.626	-96.7071
-108.841	-714.995	-145.311
-209.863	526.386	27.2695
3.02976	-588.243	-140.572
27.0283	891.002	159.269
-147.678	-405.053	60.9697
-157.822	-965.516	-21.9892
129.071	-190.389	-119.954
-212.938	-201.155	-82.2251
-199.328	546.262	-181.351
212.587	-718.475	-26.0521
157.184	-387.575	71.1065
-78.0445	-223.929	38.1668
-39.751	802.509	146.425
-47.5613	455.421	-88.0545
-212.505	-489.772	152.738
-139.463	-809.479	26.1095
174.396	86.8883	-160.932
-1.38602	-822.745	-123.813
10.6978	-161	-117.39
83.9168	-205.947	-73.4614
-88.3761	445.568	-26.0165
-43.4717	-951.741	66.6679
-192.113	428.222	167.138
-27.3574	587.759	-29.7123
-174.613	364.005	40.2513
-190.245	-265.492	-164.915
18.3406	-363.566	217.129
-68.1983	-37.6988	183.968
154.394	111.208	-7.06895
-105.106	-722.245	176.136
136.259	933.754	219.579
-138.261	-477.88	219.45
-7.83399	-420.817	-76.4687
219.998	953.263	126.75
-160.171	919.342	-189.469
143.051	777.33	94.2318
-31.7843	-168.588	-151.495
194.123	-383.201	90.3432
-192.393	-465.188	59.6063
33.4889	-693.095	148.82
33.218	-780.039	117.243
87.339	452.877	130.902
-122.986	227.14	68.9662
-201.762	335.953	-115.793
200.323	-302.449	-49.8416
95.9348	799.366	64.4366
-104.638	293.256	-170.681
77.4126	965.107	105.114
-146.095	-424.644	170.561
-5.75241	834.035	61.5041
15.2982	-90.9026	105.54
-47.4304	-956.295	145.714
-0.912627	259.953	-116.543
119.785	752.725	147.764
-192.22	-962.959	-171.365
102.291	-962.575	219.393
178.083	-820.355	-29.2819
99.3341	814.036	34.2621
43.447	601.758	-77.961
64.5773	68.4236	156.528
-219.925	720.34	-164.866
-143.317	844.975	92.9847
152.173	459.626	-131.271
130.671	-11.1383	-211.712
6.0793	464.553	147.356
-48.8414	149.485	-177.933
-55.0294	18.5782	1.09572
-136.898	-628.709	109.637
107.02	-484.742	208.924
-210.893	-286.177	214.386
3.86512	225.515	104.625
-125.6	27.1757	180.56
75.4136	433.145	210.119
40.1919	-479.379	184.928
116.467	-617.822	180.884
199.65	-357.996	176.11
-106.121	-646.861	-5.67122
-115.472	-423.239	-121.195
199.974	-174.269	51.0088
-215.035	-730.545	163.826
-173.655	-476.102	-64.754
-215.789	-111.257	-2.54327
-167.54	262.261	-35.8152
-209.37	-687.046	-90.62
-204.028	-625.32	-199.747
101.119	-65.4862	-68.604
206.809	130.824	-139.926
-181.322	717.741	147.984
-181.911	-207.071	-171.81
-65.0123	-571.25	-155.928
-192.233	-357.96	55.7878
-141.159	-670.683	202.542
78.7142	-418.8	148.497
149.274	-6.88311	212.339
15.6498	239.978	148.404
27.0719	-741.746	-21.1891
2.06034	-503.498	-183.257
-122.003	916.344	-165.407
-149.993	883.115	135.55
-35.6844	-428.477	-118.527
210.509	211.746	213.593
-2.85977	-802.359	-93.212
-75.5592	479.28	202.496
-214.415	587.009	21.4531
-131.748	-625.789	44.0992
-104.571	241.716	-167.414
-144.228	-443.057	76.9218
198.339	-733.945	131.921
-204.105	53.0757	-57.3978
26.0657	-763.803	75.7391
30.9592	-669.174	-202.059
104.45	-425.478	12.2801
81.2906	524.312	-82.6633
-176.705	-477.985	113.131
158.197	6.02367	20.5214
-152.268	-93.5424	176.004
101.677	162.223	-45.6219
-147.861	606.327	206.436
87.1382	-252.569	-86.8586
178.33	-642.958	113.105
-88.7173	50.5068	-140.786
207.755	280.6	-56.9022
75.7841	-852.07	-172.401
175.333	793.772	-124.996
103.234	-391.811	156.435
77.5208	548.885	-114.346
175.41	-949.496	191.062
-170.464	-695.858	-19.6757
-74.5633	839.589	26.349
61.2885	-451.654	208.509
101.517	-700.236	120.279
94.0522	-949.036	-192.199
54.589	-70.5516	166.875
183.017	-715.477	3.0584
89.603	-2.66523	113.597
193.765	254.184	105.893
189.802	535.471	76.7215
61.4687	640.313	-47.1346
-219.417	-174.403	-186.472
-48.6858	414.806	-60.3331
43.4787	-448.706	-63.3404
-114.2	695.23	62.0342
-204.029	848.961	-93.4001
-162.886	287.594	169.437
194.574	-892.103	119.835
96.1803	-770.743	35.271
184.664	265.833	-132.678
-190.782	818.056	-41.5163
-42.6465	-554.674	-76.3405
-104.455	30.2736	-109.506
142.023	-526.443	102.833
206.208	-257.075	-0.215657
211.608	-211.787	126.893
-84.2907	-253.174	-155.33
110.182	245.274	75.2879
-122.659	940.85	64.4949
210.89	745.414	110.496
-215.721	-721.488	-34.3459
3.33894	-675.583	-142.124
-132.458	-89.6124	-111.293
-33.0809	369.506	203.666
-117.048	-95.3368	54.0857
8.64665	350.342	104.144
-16.4704	-94.0632	113.223
69.0205	839.684	124.334
-20.7571	-260.927	-15.4862
137.29	446.387	115.856
-49.8221	-855.605	120.541
41.6788	160.184	-116.024
90.1506	-460.547	55.4259
-209.73	945.459	56.2419
207.476	-76.3094	-204.557
-15.7022	-782.235	77.4184
-43.6889	-363.517	36.9982
130.214	-209.98	150.834
122.911	-257.639	-87.3178
-139.212	-499.249	-130.103
89.4436	706.786	175.851
184.256	-238.202	-68.6903
45.1844	847.689	32.4654
-34.4766	401.151	147.972
-71.4124	-947.942	41.1794
4.85234	-583.361	67.6417
-160.451	130.591	-68.5677
169.902	58.318	-57.6513
159.437	-874.064	67.449
205.606	257.854	-94.1774
-201.164	-853.731	189.405
-207.941	79.9676	-134.176
-65.714	-674.05	193.63
-212.079	-579.584	-34.9768
202.57	49.2528	-91.6013
168.775	-955.723	-133.435
44.5381	269.088	-204.549
-70.6673	840.491	-145.255
-20.6502	-8.69161	91.3541
-75.3239	355.729	47.1156
136.742	-547.067	11.2889
65.6331	-155.511	111.044
98.3685	365.347	5.69433
-51.0004	651.132	186.207
-75.9437	23.4587	67.2911
61.5173	-902.15	219.901
91.9949	-477.739	-143.18
-207.768	568.879	-95.1304
-162.825	775.449	16.1177
-71.7463	-39.1583	146.622
44.0942	964.205	-125.674
-215.257	-43.6634	94.0605
26.6099	-671.563	117.731
-120.17	454.594	-47.2994
83.4835	-364.141	-88.3752
105.164	-261.116	-31.922
-45.3515	-290.147	165.654
33.1642	471.309	-46.223
-33.4798	-549.308	-119.492
132.713	-931.748	-104.241
192.653	-743.802	199.856
51.5195	-621.437	-52.8338
116.481	-216.727	87.2443
-147.505	926.287	-94.463
-151.635	616.94	36.2762
-7.73014	429.371	-120.367
-191.257	203.901	164.898
-215.495	-913.679	170.98
-171.22	-820.399	-35.8814
-196.448	459.141	161.448
-28.417	401.923	-4.63162
92.2709	288.012	-156.147
-65.7369	286.891	-219.66
22.4608	676.569	-134.519
15.0689	163.037	-79.5472
-93.2558	348.211	135.031
193.449	-829.746	139.468
-139.817	-823.373	-158.369
-196.423	-815.451	-182.777
208.676	-851.37	-144.708
-91.7179	624.667	-154.255
138.752	-116.473	-180.141
-15.3637	-337.139	97.6239
-95.5618	308.994	-92.7427
-45.1678	816.271	32.673
11.9352	-499.506	28.2573
1.92559	176.953	20.9322
116.907	-845.163	-179.026
7.27917	-906.944	5.48649
-200.259	-871.586	112.431
-217.17	-619.787	125.52
-135.597	500.803	-87.5713
7.00776	189.678	181.749
-66.1551	-718.041	-24.0406
37.1363	-422.179	-14.4052
48.3479	240.056	194.44
23.4804	426.352	-175.636
196.619	-807.936	-185.206
-21.3267	-866.828	9.59621
200.929	327.373	-96.4905
-141.654	611.033	-130.745
-197.048	-354.194	-6.22079
205.594	-646.679	-39.5213
162.173	33.4331	-125.7
37.9779	453.1	-156.493
49.2152	209.019	178.686
211.358	-730.762	3.40886
-8.74903	-774.847	125.674
212.398	-396.924	217.098
135.189	271.984	120.213
-192.856	419.98	40.8852
-122.062	-925.928	-25.3
211.646	-161.035	-54.9729
-8.73199	-463.164	144.492
-42.256	-740.634	-90.2006
47.2159	-262.063	-41.3927
-156.427	30.2942	195.581
-172.592	-9.42941	-44.9304
80.114	-800.135	-145.313
22.979	345.822	-211.279
210.06	295.821	-91.382
-207.771	680.777	158.088
66.3476	107.401	-189.404
217.728	-307.956	-79.589
194.066	546.895	-181.934
174.895	-600.652	-44.4563
136.493	574.22	-112.319
-184.315	-589.395	213.571
-49.494	-171.556	162.171
143.619	311.448	-107.569
164.628	167.268	72.1064
122.346	-831.295	133.625
201.677	630.041	47.1567
-40.6069	-287.406	-57.3118
-130.481	591.314	63.6169
-27.2303	-58.0252	-174.804
-39.4216	-489.832	139.257
-128.357	234.636	19.2354
-192.948	283.109	-213.005
-35.9506	233.288	-101.104
-93.1959	356.221	18.9907
32.5943	-457.774	-179.91
177.58	-302.288	209.477
111.734	453.217	-219.002
197.395	-668.422	-110.853
-134.477	-680.734	169.22
-118.022	-373.509	-83.103
37.781	-71.544	-161.855
-214.519	289.786	21.4064
-87.9608	-541.434	97.0746
-45.724	-262.972	-206.162
-195.983	156.254	41.0336
-90.8468	883.136	-137.221
-16.7947	541.845	-156.896
213.745	-547.054	-40.3202
98.8398	147.2	52.6675
-155.84	-250.087	-208.033
176.958	-217.731	112.418
-60.5408	250.331	211.905
199.899	727.994	-119.165
-65.3763	72.4425	135.456
81.7756	937.019	73.1614
175.98	209.542	-18.9382
-139.665	-916.45	-176.285
-69.5123	579.507	-106.054
-164.843	-139.947	-15.1672
-196.49	-527.345	121.865
126.3	305.717	121.338
150.538	597.07	-40.0898
10.724	-474.194	-217.454
64.0296	-501.436	-213.041
123.692	680.967	-115.753
64.5641	639.95	215.038
-130.052	650.586	-194.35
193.247	894.879	-115.559
93.8377	239.884	-149.88
132.686	-68.6206	-161.566
-182.299	-818.095	171.365
188.097	159.283	131.024
-46.1439	-132.274	-136.477
-56.5426	923.745	-158.181
210.602	74.1434	169.972
-74.6779	390.469	-196.086
-72.977	863.708	87.1451
-146.939	385.716	-69.4355
-30.4667	889.837	-62.2638
-70.4732	816.257	-97.7395
48.6867	-94.859	-69.413
-205.5	694.903	82.8975
-31.2996	825.346	-29.4331
-155.06	-39.191	41.7159
-30.1806	-868.258	80.9535
37.6899	683.937	99.1266
-14.3535	331.313	-145.477
98.214	-528.405	-144.058
-210.697	-495.375	-215.68
92.596	85.0283	88.2421
-93.3945	-845.351	178.959
39.4663	367.351	-40.8235
180.908	-899.164	188.573
-111.526	-84.8485	95.8458
-7.82973	766.067	-44.9138
-45.8983	-887.776	-16.8691
-210.691	121.894	55.8517
-94.566	529.298	-36.4495
179.273	34.8652	-185.756
-88.0386	-514.673	-71.5296
207.766	-274.962	192.43
63.777	508.315	79.664
34.7787	267.939	-35.4585
-117.473	-488.483	-160.652
1.33915	262.554	180.544
-133.675	107.697	67.1568
-74.3154	186.464	-82.0754
88.5344	73.4456	34.5858
96.9926	798.786	141.923
129.699	-384.301	-213.241
103.858	368.61	170.071
-32.5701	682.83	-151.161
-208.457	-799.774	22.5609
-77.1706	-567.338	61.2884
-205.033	234.366	-190.804
205.302	949.022	-41.7106
127.386	795.795	-154.246
113.01	772.874	57.4064
125.467	936.839	166.595
108.593	-596.796	68.6266
-104.017	-941.441	141.119
67.0182	-863.324	180.021
41.8667	767.482	-122.696
-17.396	-380.225	38.2635
60.9293	486.539	19.1961
-24.5717	-686.144	98.8914
122.969	34.2081	-141.585
197.871	827.515	75.4181
32.7404	-390.779	57.6622
-14.4048	-551.348	58.4997
38.2016	546.682	68.4438
-105.771	-923.751	-210.534
-30.4217	534.043	42.8193
-72.4011	-763.759	213.208
-113.082	-601.258	28.9745
157.567	-300.347	-106.414
23.2734	-202.172	-127.696
-131.017	-550.038	-36.8119
108.918	911.038	-184.872
149.342	214.948	-4.35102
194.919	219.411	-171.237
118.844	804.974	-208.522
66.4416	-292.918	103.799
93.6174	-2.39516	-219.423
151.888	-959.819	209.658
152.116	890.313	148.301
72.0829	351.707	-28.0359
-8.01549	751.954	-92.6278
-37.0531	-878.488	-55.9974
-207.899	-159.908	-135.036
219.66	-267.043	-60.7934
7.98609	156.973	-156.248
-75.8884	-156.277	-192.12
28.6062	-150.682	-195.894
-47.1168	-804.782	127.982
-183.111	256.754	-182.924
20.3454	-670.183	186.309
-43.6496	-647.767	59.7262
197.081	243.515	205.682
-3.62768	597.469	160.641
-13.8256	-123.163	76.5791
191.136	-220.753	-207.993
158.685	-65.5983	55.979
195.311	-257.043	-218.242
160.788	528.324	144.913
178.939	-482.236	-135.922
-141.187	261.152	-118.338
-201.841	282.573	-117.652
-21.8469	166.122	-165.005
-133.941	288.613	140.131
68.8668	-506.689	-141.183
161.652	729.099	50.0703
180.52	-863.139	204.327
50.0098	946.008	-71.2878
179.467	-35.894	44.8083
8.8146	-59.7157	-152.9
-184.383	-16.0298	-112.787
-137.811	-857.21	109.223
73.6348	-821.855	137.947
169.175	551.456	23.5685
69.7125	203.668	-193.841
64.2926	488.742	-74.7087
-86.1852	-827.684	203.275
38.8491	573.518	131.092
-23.6779	-688.988	-98.6302
-147.834	22.2248	-118.967
-181.73	-300.566	-59.0673
206.865	-586.166	-198.007
-36.947	365.959	158.746
-27.6202	642.056	-151.748
-158.832	874.936	-27.1061
-172.965	-273.386	213.587
107.116	3.77206	183.139
48.4132	-623.497	104.929
24.259	-859.856	25.3897
-174.545	-373.743	-66.7547
-122.686	514.021	23.204
-36.5295	-327.777	149.198
104.258	-180.041	74.8053
56.7122	-29.0812	-69.2492
172.199	377.079	-175.289
-71.235	41.6043	158.475
128.118	-272.914	191.566
-184.265	-183.884	-106.862
149.135	-773.483	123.271
22.9529	-861.536	-85.1119
-156.309	324.739	116.001
74.6835	-792.266	-33.7085
-168.902	706.398	90.7614
-95.8448	2.80422	194.434
28.0804	-744.238	46.157
-191.387	-287.373	83.443
88.3117	-805.894	43.2065
-90.7406	151.48	121.426
-75.9164	192.256	190.919
-113.453	-533.593	179.937
-100.545	221.732	-213.16
85.8103	463.876	96.9327
64.9175	538.777	-61.9778
172.146	320.514	-188.403
-196.197	703.976	-131.032
149.444	475.389	219.308
10.1369	912.196	-44.2519
-93.8205	398.561	-123.629
4.9007	521.567	-151.442
62.9625	-839.533	-119.562
-40.9371	947.499	-202.005
150.86	-622.94	29.8249
-210.984	366.251	68.0121
-161.233	436.16	81.5991
179.944	116.25	84.8028
-139.343	378.329	59.196
92.6025	-218.178	166.143
-108.416	-495.582	-90.4868
-9.73475	-207.632	185.003
-217.027	-747.112	-216.961
-114.926	683.533	98.6151
30.6593	-430.9	50.9547
-161.142	395.197	108.29
75.943	-463.249	-213.76
9.46868	957.134	-20.6948
89.2428	-266.51	74.0494
44.4383	-278.379	-13.0078
20.48	-114.52	-132.734
-36.3467	326.681	202.73
164.943	-795.181	-206.039
13.819	-283.554	14.0612
-33.5106	915.811	-89.6441
-188.536	-506.89	-142.413
-169.533	368.539	-12.8981
99.5279	-390.166	87.427
-183.815	-665.973	19.7479
67.0418	-389.171	-75.8081
202.814	-80.2684	199.598
-85.8894	-738.225	34.1198
-176.453	347.529	-174.805
-143.985	-407.021	-39.8832
-196.611	-563.836	113.845
-48.2363	-372.186	210.56
212.413	306.249	-130.297
90.5184	-298.055	-72.1337
-35.2751	133.229	-95.1491
34.8967	-707.294	-193.36
141.639	808.997	-26.2615
-115.476	846.945	-62.1695
82.6386	392.465	-145.609
103.369	141.884	-172.787
32.8452	140.494	-174.218
121.189	-780.247	178.938
-10.9047	26.7592	-147.28
-10.6112	-184.331	-211.569
-208.827	-255.524	-131.405
184.947	-706.314	-29.7624
96.2789	-388.407	188.109
-79.1496	-505.592	117.781
174.134	-179.236	-115.109
-173.671	462.792	-144.627
-19.7858	-95.9782	10.9292
-64.5843	723.608	-47.3229
-26.0783	915.592	211.276
212.731	-334.415	120.229
219.538	875.023	-73.9683
84.8589	523.421	22.1128
129.029	-907.69	62.6645
-120.841	289.871	-129.318
-135.121	711.245	-22.3854
132.549	539.288	-57.2237
-42.1233	797.948	187.145
140.811	-762.008	-204.747
18.2271	917.504	69.39
-137.087	171.362	175.319
-38.5531	608.745	-93.6369
30.1769	-741.941	125.01
-149.822	513.041	122.482
189.66	929.204	158.911
143.875	825.254	185.896
104.39	682.216	72.3149
157.43	410.279	-23.1873
67.7376	890.722	52.4764
-154.807	807.934	210.689
-80.8347	393.833	218.978
-43.0478	-961.504	215.098
-198.984	821.166	128.275
-64.335	663.756	20.1669
26.5579	114.175	46.1697
153.787	-150.215	-101.858
145.67	-402.799	142.649
-194.498	-731.721	57.3912
-196.219	-425.099	-82.6804
-0.750419	-396.578	-29.4826
169.193	-448.075	-171.897
86.6409	-296.41	65.0872
-90.1855	-815.979	111.05
203.467	-619.571	124.411
72.5281	38.2601	-170.862
-116.086	-818.884	130.951
94.3369	-254.715	134.926
93.8697	546.767	169.467
-181.474	919.651	-17.8161
104.549	-839.04	-143.953
103.438	-416.538	-24.3392
179.764	-35.592	122.865
-162.026	805.111	-174.422
198.676	-85.8769	105.127
127.867	-930.673	-39.8896
-76.5457	754.418	88.5627
56.3748	312.536	90.1812
-112.253	-210.998	37.9306
-46.3486	-683.973	-17.2064
-7.22963	890.231	160.288
-68.4758	217.775	1.92234
116.568	834.317	-181.008
-171.69	-574.383	177.042
-170.202	712.938	-47.7898
-63.148	513.633	63.7714
-160.448	-160.761	96.5283
205.371	-956.537	-154.009
44.1276	-375.819	174.496
-105.922	131.729	43.3132
12.377	119.311	-0.524678
130.065	520.432	136.83
64.9816	-950.923	182.846
-150.126	631.061	99.6726
173.614	-263.123	-98.9771
-209.34	759.123	170.116
212.019	290.394	-187.973
81.6589	-650.217	200.811
59.9359	819.402	-182.471
88.3579	520.983	-132.736
0.61028	214.118	204.652
-73.8844	797.962	-190.541
-100.696	380.177	-51.6126
120.643	740.043	81.7772
147.274	-776.389	-126.423
219.992	396.571	32.8733
129.381	-587.393	-131.201
-165.359	213.617	-217.185
-39.9368	59.1143	71.5298
-83.5756	-499.832	151.452
-44.3136	-607.424	-207.68
-174.49	811.542	6.30831
29.6923	-297.262	73.0888
200.432	169.171	202.043
-143.31	191.981	-107.645
-85.2119	-511.144	-120.725
-96.2346	466.182	82.8236
-212.782	-811.284	173.667
-31.5135	-316.657	-89.7564
88.4593	550.199	80.3899
123.26	-634.806	105.106
-24.4966	725.578	-217.521
-198.618	346.801	6.38203
96.916	-486.016	35.0062
197.461	441.203	-163.977
175.84	960.55	43.9631
-172.948	551.828	0.58172
202.414	-519.792	205.385
-85.2837	8.25065	-72.3593
13.4351	-84.1506	13.5476
-59.8354	-386.739	-209.417
-191.103	263.06	-12.5009
-213.695	747.633	-53.9934
-85.2271	-126.811	32.8513
-37.3509	-192.439	-171.181
154.756	-913.08	128.709
147.506	386.942	36.2377
11.5349	-835.089	-212.499
-199.886	636.666	129.621
4.57901	-874.974	95.5809
184.933	-928.886	-19.4065
-53.5589	338.549	-57.3573
-12.9819	928.582	-19.2134
-106.312	-95.2597	136.583
63.9582	13.5969	204.387
65.6908	845.14	73.2439
-27.1486	7.20058	-94.6578
2.16819	-235.511	20.6258
-150.411	717.493	50.9345
144.992	233.633	85.5556
30.4682	-60.1141	-31.0488
104.017	577.708	211.271
-186.948	649.156	13.5818
-84.0799	545.626	72.5001
-63.0023	-350.283	117.686
6.57246	659.837	149.026
-104.815	-38.051	85.8234
129.542	-330.757	99.7783
-6.27434	-338.675	-17.5164
147.699	611.23	-76.8548
129.247	-418.547	204.013
-210.071	-695.851	213.743
-182.628	506.015	134.288
153.673	436.338	-69.7298
99.8894	-836.17	-44.0146
-88.0854	891.858	120.311
209.817	691.787	133.271
119.79	-871.96	131.979
-10.4123	393.198	164.946
-108	648.109	46.1899
94.1283	-872.583	-48.336
-5.80291	834.493	14.5375
23.3378	-631.447	198.376
202.216	836.863	-196.093
-108.055	631.594	-109.22
-117.38	-428.337	-75.7274
-4.97936	711.433	212.677
32.51	277.574	-70.0403
102.404	-951.131	86.7657
0.323288	102.656	-208.216
-112.224	748.403	108.429
-202.497	-429.221	-10.5443
111.171	463.472	-145.08
58.549	-314.697	-150.993
71.2247	800.001	-111.888
78.7723	400.185	218.226
176.701	-151.941	197.378
-14.396	-904.596	215.749
-132.668	739.493	0.554471
-173.959	542.303	-87.5935
-209.764	324.907	217.568
151.817	-789.759	-174.406
-159.631	-961.558	-214.369
-60.0548	122.953	55.5939
53.8462	-520.075	45.6701
-51.6771	900.177	-128.617
219.476	-880.603	175.496
-201.152	-62.4087	191.474
-17.8637	-476.466	-1.8862
-33.3297	-835.685	-91.3975
93.6883	966.818	-83.1745
209.413	-331.747	206.307
-170.278	-884.472	-37.0808
142.291	-168.369	196.767
-73.4599	939.344	-38.4227
144.471	-805.367	144.32
-149.104	56.5	130.93
212.038	489.623	-138.26
119.982	566.681	-219.953
0.803015	446.303	93.6888
170.8	100.509	127.811
46.0051	-933.771	92.3704
-197.486	116.917	-157.82
33.1876	867.734	-56.5264
160.763	960.819	-163.082
182.355	355.53	216.076
-79.9714	-586.196	98.9926
-35.9535	-409.227	-185.481
39.7692	411.831	98.3334
-199.536	219.028	-159.847
-103.094	553.007	133.798
72.0252	804.894	-36.652
54.3982	-162.747	170.554
-31.4225	665.614	-99.1801
178.803	-790.472	86.6623
7.1975	-13.1848	144.805
-189.488	-52.5446	118.662
-103.989	207.619	-92.6048
-101.957	225.751	171.808
214.653	-708.283	204.725
22.7189	70.2974	215.003
-121.025	28.3429	53.6324
-145.465	-164.973	-163.602
-165.699	192.316	-134.2
-93.8113	-768.128	-137.48
-61.0383	-411.389	161.025
218.472	-867.747	106.562
65.1639	-301.602	-182.407
-150.494	-97.3419	35.6659
92.4655	-787.711	132.803
53.6541	855.553	-203.139
90.4796	900.084	217.344
-188.396	-77.8155	162.135
169.223	-406.018	-19.5861
108.383	661.762	-133.292
137.92	441.563	205.437
80.3755	909.566	-108.997
-120.098	-91.5396	-204.169
-212.304	-124.353	29.3159
-73.3075	316.333	-7.01429
71.0259	-342.931	144.121
-67.5239	532.365	-63.6382
9.12367	-516.472	-101.134
81.1583	454.15	-147.541
153.462	253.101	-79.1134
165.023	-234.639	87.2913
-16.7834	-733.619	-175.331
-153.476	-458.887	176.942
-99.1896	-836.886	-15.252
205.323	-441.63	52.2633
-89.8989	857.668	152.521
123.925	-628.436	140.174
-85.9132	-711.312	155.34
172.683	-539.854	10.5157
-146.348	-592.209	-25.7396
148.168	-596.752	64.7311
101.108	-894.371	-118.715
-160.857	-320.859	60.2057
-86.5461	-435.724	-89.6836
-141.3	-31.2527	-46.7021
-53.3638	581.223	38.1811
188.88	656.185	188.038
27.5982	840.366	180.869
-2.68257	-586.374	-91.9143
135.996	-311.952	2.91912
45.4274	753.843	36.3057
59.6404	-400.486	115.795
-130.894	-147.95	148.663
98.4702	382.499	-190.269
-116.769	-917.161	-67.889
42.9802	-580.68	-34.1059
102.841	912.084	67.2842
-137.725	-435.719	-9.99042
193.622	437.438	186.925
159.83	-100.4	86.2151
113.03	-931.63	-72.8858
-149.034	738.07	163.186
-203.239	188.504	-207.966
-168.837	533.215	-218.174
-70.7079	-45.5513	-191.106
111.415	139.303	-111.781
-207.77	490.335	-21.6543
-133.563	358.283	137.945
-63.4576	-143.036	79.2612
181.418	-442.952	205.063
67.8245	212.82	-156.874
-87.4275	-502.877	-1.48765
200.317	551.705	-94.14
-72.1165	921.284	85.7144
-24.4538	120.866	30.5584
32.8491	334.497	40.4519
-88.0737	314.584	47.335
-15.2355	611.306	-214.59
107.828	-553.33	-4.86286
39.5271	-696.667	-98.9065
72.8269	892.105	109.933
-146.576	-531.337	-79.0787
-212.055	-398.03	-8.42904
-4.74891	365.808	81.2244
-15.323	-743.049	88.3682
97.1632	922.961	-72.0672
-129.563	-447.93	136.117
-114.788	-493.389	189.464
60.6927	27.4107	118.026
209.751	794.431	-42.7657
202.74	-137.393	-87.7469
-142.962	226.391	-145.018
86.8443	596.27	150.096
28.3125	-372.555	-37.7353
-195.664	966.097	31.9215
-117.583	705.733	204.377
85.3694	-203.625	-110.664
209.231	590.137	-148.978
165.014	-92.7106	-78.617
-135.957	-899.301	144.569
-218.88	77.9157	103.945
209.509	-529.537	-83.2491
65.1975	278.583	162.538
-106.646	578.367	183.055
-182.531	451.523	26.6526
-7.82567	406.459	-179.151
-1.20072	-701.895	68.0417
-21.7878	637.399	87.4386
-165.187	673.473	59.5752
-94.8163	627.555	-59.7035
118.842	51.6801	160.084
-136.283	-629.794	-194.199
-162.969	-777.669	-19.4989
50.371	332.62	66.0586
-113.817	367.688	209.084
130.089	775.173	-215.989
-98.4705	946.1	139.996
176.864	-808.243	186.779
-197.602	29.8701	208.138
47.1145	-255.298	43.0776
-34.5272	913.672	24.8162
-207.565	-255.335	62.0402
-151.389	-844.873	180.801
76.3625	-903.149	-54.9796
65.0297	-150.351	71.6333
177.068	448.696	146.844
101.276	531.514	51.4682
-152.83	-279.633	69.8111
-28.0298	883.906	42.0912
-214.919	836.128	158.644
172.951	910.298	90.8933
37.6956	-789.119	-151.97
200.564	-694.823	-215.398
-131.814	-725.657	-208.12
130.526	-154.932	-171.282
77.2511	-715.213	199.89
180.138	-437.729	81.0776
42.7543	-37.4721	151.847
-218.274	648.506	-16.6094
-95.4768	-967.964	218.218
208.826	947.092	-2.56525
-49.2186	84.4022	-119.392
-206.262	-582.971	16.7531
-6.23404	-474.911	-175.89
-210.885	903.797	53.1044
90.2565	-82.5923	122.693
-201.94	-904.148	2.80645
198.058	-957.087	145.31
-179.528	5.2517	-155.631
178.031	-234.182	198.791
-69.1432	-773.03	181.331
177.575	-751.922	-122.576
-76.3303	-853.161	88.051
141.045	367.424	-210.769
-181.922	-761.795	140.225
46.7504	517.657	155.955
157.158	601.585	-147.379
207.307	-237.65	-24.342
-25.4829	813.834	-191.098
109.336	-457.195	-162.638
-27.0207	-835.867	214.214
61.2321	-753.089	70.9095
49.9751	351.202	118.191
-194.655	188.729	-159.085
76.2168	315.197	37.3701
