1404

24.7330999	158.268868	43.248713
-193.028771	-290.788403	124.424953
41.5632176	-935.457323	39.6604919
3.62617016	128.881201	-215.182508
-9.71938491	-737.209921	98.4216213
-209.96786	372.333438	-219.314765
51.339159	-506.568245	107.972281
-85.5692995	885.678096	-189.716256
-60.5742538	-948.703655	94.1107941
-79.4089067	-875.350774	21.3168168
-52.7465272	635.687621	-80.0882661
-105.424906	325.1761	-45.8129644
61.5531802	255.519814	-61.6418898
112.390189	-82.9422867	142.003064
-144.893325	-827.398133	-196.642495
-198.101816	-133.981541	202.130361
-43.7925363	-764.513303	-36.3678122
187.356653	-506.221577	102.023664
-30.8498526	-155.576353	-18.3306932
174.776912	-893.171917	-218.253362
102.897725	-169.914962	-83.9907801
-176.881214	230.616049	152.648714
155.358651	-433.870205	-73.2262087
98.8995647	-662.52451	-138.96502
-217.361863	807.14929	78.9857626
36.0942745	-186.786512	37.9602838
-13.1923556	-400.538931	-212.873923
33.7304425	-778.763698	111.160948
125.503395	-940.99562	134.700711
166.948071	124.126602	174.994168
-10.2327335	508.288257	46.278975
18.085742	960.600886	-143.260655
-17.9831064	-498.526547	-138.209552
-7.00978875	816.786723	-49.6508574
12.8028727	-498.685832	176.820629
33.7007809	-195.025538	-183.836617
66.9556928	872.853007	-214.506137
64.4395661	418.995752	-92.5126052
-166.814023	-47.6954949	195.786831
36.7009091	-482.460641	191.91154
4.17838573	-559.134087	-25.403595
-154.786169	673.107851	-36.7067182
76.2113094	191.691896	182.836936
99.1841698	115.556115	-127.918558
81.877656	-84.509114	66.9498968
154.139822	-382.822335	-9.72613811
-193.73695	293.610253	-139.210679
204.466314	-848.791519	91.8868518
47.9438829	865.423702	-138.887509
-212.005031	101.370026	-64.4948375
-98.1598198	-827.006137	49.0857124
103.560956	-372.512207	-79.1499507
-86.9624007	967.309798	-48.5480785
60.870018	-945.643278	120.8478
-190.843527	562.926821	-182.467263
200.473373	-269.355882	168.679121
56.3877249	896.41439	39.2766213
42.6083255	-3.49101841	131.619859
83.27595	-892.551878	-1.51868463
-174.272431	516.458886	-68.0740368
89.0230465	-265.86099	174.0943
-51.8979967	-133.948933	-198.015747
66.8297291	-793.008876	109.333832
209.95949	-214.774326	210.848422
73.420229	221.136454	169.572957
144.007678	-151.386564	-30.6223285
-150.300742	-722.758266	-94.997654
119.769464	186.057215	-176.410932
-156.807089	-121.831345	-64.5667493
199.97395	-496.539192	-25.1693571
-150.984678	-587.882535	-94.8899567
-85.9884965	-633.255627	-216.789918
-192.268791	-447.846593	30.6145525
200.702143	-631.064295	180.853381
205.335655	-627.594206	-44.3779278
177.091098	940.56076	41.5249801
110.582271	711.817273	70.2284145
-188.233029	-310.556271	-4.70010042
-160.345815	-143.84735	108.834908
-24.9707472	710.00912	33.4385204
-67.9407954	934.253442	199.626009
213.576901	-764.164265	210.564997
-115.420759	-356.919905	-150.20743
40.1756763	367.160943	-171.81527
-1.26674414	-942.528737	20.7302713
209.845669	-750.46395	110.209625
-72.8712785	-617.620888	132.876296
-120.439827	20.1631594	83.2644892
-157.977485	916.104147	199.239805
-41.4623654	-292.945942	28.5172033
-187.965668	969.569383	95.9019804
-101.572182	-917.388722	-200.312255
-192.680286	44.2983127	189.3224
-161.473705	329.966544	-99.1802096
49.9063778	-307.238818	-41.185379
217.62337	601.600397	-82.6501572
-82.0447814	-600.462394	109.612353
56.4026213	85.9308219	156.551044
187.65959	654.428263	160.128932
-205.640443	-206.408336	-134.133173
208.111813	877.176988	104.438977
-127.960709	435.600306	32.0311785
156.024687	-953.772526	-114.635873
25.7284307	-924.538181	155.768275
24.7907448	-776.746668	-53.0264902
35.3943014	-450.368434	88.7100911
-71.2213457	-666.059469	117.370646
211.644933	-881.962807	-75.2515018
-21.1567724	655.243475	46.0759854
174.771116	-35.7204247	139.301388
-202.602146	625.459187	-46.4214611
38.8729763	-661.634512	-49.5690715
-209.282906	244.171591	-152.115105
134.625206	623.281471	84.0448189
117.022862	-665.505847	161.803308
173.301775	-153.728711	-1.44411087
56.7807221	93.3943546	-201.539881
183.779867	703.631612	-56.6808009
139.944293	596.038796	-134.485651
204.942553	467.916726	-101.573205
-151.483228	833.853577	-69.4942164
-138.671032	969.805505	-80.015043
35.993619	-508.99544	-96.9619322
210.74677	273.005838	-109.47064
69.9858236	13.683548	47.5884151
-149.094252	369.49777	-203.110362
-137.53966	-205.898047	74.7521448
191.766353	-271.006486	218.144901
69.2936659	-96.2852955	-130.389116
130.891535	466.751029	69.5749927
78.8009477	347.448983	39.6792436
-55.7352209	567.907597	-205.060054
-170.957334	319.605479	-151.071905
119.712501	556.256993	139.0856
190.148809	-758.79051	-123.073899
174.519346	-417.416032	-188.048854
-17.0576942	334.746581	-155.674897
68.6211777	35.2275968	-63.0222583
106.58529	314.962467	-182.125764
25.1718354	527.598623	191.242251
197.419848	-401.251636	189.630635
-175.092041	-955.9289	-90.0912201
-175.549544	-148.855416	-80.1871777
-7.87536621	316.668863	-212.208256
-215.694807	769.614815	193.478284
11.4062047	71.5349746	-4.43178177
96.3386703	786.596447	25.8070564
-91.9232798	-855.465279	66.9839907
2.07888603	403.726991	-115.977492
-106.973239	-705.277417	92.2831011
-219.372945	935.320619	4.82249737
-90.7709467	-701.405416	-144.358078
-125.044032	-472.704511	16.0601473
-138.330671	69.2938912	140.659871
-142.010624	-465.109966	191.207108
-183.924008	246.184299	36.4647174
-201.331858	726.40218	-210.824599
119.830072	121.022781	-173.433617
-102.998695	-813.648573	101.170976
-63.7283027	359.50384	-9.46848035
19.3826723	-939.205683	-121.551549
140.512769	-603.387187	70.1732349
-23.3123958	-938.758291	-167.917401
-185.695564	521.311772	3.0543375
-208.22129	-24.7535008	31.9136071
219.824338	-583.651407	-0.969852209
-68.7583137	-218.548414	68.8012457
-184.469379	435.863024	150.529571
-36.7092228	-272.77914	-111.748431
213.543043	-345.968592	-117.397462
-163.262938	-444.656163	-211.441744
24.8501992	291.954389	108.605928
-206.584275	819.552433	-174.744677
13.0053377	901.417483	49.2071915
49.4479203	-711.705022	92.8786421
93.4038711	505.104996	140.064251
112.750299	-561.465046	102.478423
-204.882949	589.979857	-137.441378
65.4501081	-248.604729	-91.6669595
216.606402	-798.806137	146.360626
-166.624989	460.686772	-11.0376763
-121.59892	-593.442892	157.21674
-26.4875305	115.535417	74.0742016
127.736831	949.611356	-142.611043
130.915611	675.437393	-170.105719
-14.9525297	-304.942404	-51.2711549
196.522655	197.706894	104.035594
-119.21418	-947.908969	-27.7414763
-194.305643	599.053695	-81.0238671
3.17857027	-378.125265	-6.93564773
-27.6921189	358.773271	-51.1938536
182.108324	120.295565	54.8653555
57.686491	872.518481	-12.075572
-163.044671	73.7388241	-110.465257
176.190548	80.9784913	34.408071
-25.017705	-503.15022	136.603489
53.283112	681.801372	-123.69842
-218.599165	-340.844026	-61.4892018
-86.9059491	-348.602769	-208.18744
214.215007	217.632543	-112.288426
111.092315	389.933476	104.9384
161.393604	-193.258781	8.37484121
-153.939795	53.3624375	-211.745272
-163.804414	-678.294627	30.8928108
-149.221586	-122.826251	43.8777447
-140.631468	-764.716528	86.930182
137.750642	517.78219	-41.085484
-20.560379	629.641864	-44.0154839
187.638898	-929.43857	195.601833
121.939616	-565.038886	-80.8815646
-57.6040888	-32.8221989	-178.685959
174.610717	-954.720888	138.220744
83.5876203	270.04864	-124.751409
94.5731592	182.092968	-28.9776409
-130.173302	107.684282	-204.891479
-158.230966	259.267133	-131.879143
204.570642	-427.579827	3.33812952
3.66815805	85.5887794	-33.2581902
2.82197475	-867.445907	216.260612
-210.257228	480.412723	-38.4166038
-84.1560829	304.174832	-33.6316752
-181.449384	-700.541927	160.498641
128.33405	-919.941909	0.818383694
90.749166	203.708363	-69.6950948
30.5114841	31.7321265	-205.260485
-214.821834	-56.2673122	-85.4334223
-191.425332	50.9268594	-21.9722056
-212.968164	-918.344895	159.831293
152.311158	-137.526965	115.792913
155.183959	-876.000278	-126.930937
-154.434904	343.481615	134.517522
55.6898236	-880.674439	-73.0574048
-138.867387	-440.40399	20.1727319
-143.29789	807.796488	183.103786
-218.800737	373.055451	-159.534886
24.0173912	466.500915	129.521565
95.3712702	820.460846	130.91325
152.215984	-915.64976	173.921943
131.779785	425.174718	-65.4581463
-158.02066	891.024041	-139.052706
-39.1663146	-422.311818	74.6738863
-208.670056	-372.456067	-155.132517
-143.220975	692.679894	110.736165
-28.1482291	-780.565477	-181.399575
-33.9153624	-713.610799	-215.657898
-162.704703	599.665972	40.6936145
157.7052	-775.207983	-130.813349
-137.130908	159.588819	-49.2735434
13.2268691	657.726001	190.881538
-98.9618909	107.505513	103.804936
-58.8770616	-266.979624	-139.840832
-146.189783	152.542143	70.1214385
128.978424	468.05456	186.136932
-173.083729	-400.270316	45.9108925
3.47723246	-903.467237	-51.6962528
-115.10981	-458.98766	86.2319922
6.76713228	494.928366	-24.3556941
-64.4120419	-834.210349	121.675625
173.431122	-193.859032	-31.0809958
-103.678278	-727.703977	209.260566
53.707974	113.928812	-156.281821
-30.2420771	-133.861341	69.3016124
-189.988092	-532.477729	192.054839
-206.563641	-706.42996	46.9182611
63.189187	235.7786	21.6449046
-57.2693396	756.119286	-209.89705
-139.468783	-744.109685	210.574098
-137.097076	460.102016	-214.884125
-216.906561	-665.162938	178.779058
173.188479	-21.20588	-19.6581769
-188.949266	-671.890379	194.125175
102.958806	-117.50297	-66.9427371
-201.23956	-851.103023	179.944859
-20.2546489	-324.421189	-210.552829
-178.769965	-103.294853	-40.5401397
-105.399139	717.528272	172.225957
-146.434328	-347.449214	201.915202
133.786733	-636.805647	160.597591
-179.881251	954.648793	-153.325772
33.3894253	482.300663	211.990986
-144.660392	697.669111	-133.619745
-70.1436651	424.250579	-40.8864939
97.7691174	-173.972004	187.879784
-194.462783	148.440177	82.8036189
-155.224327	263.194262	-187.913678
40.7258463	-738.866132	50.5814362
20.0685358	-542.124586	10.3998065
-49.9067056	-492.4485	-142.041315
170.200021	-415.197439	195.885651
192.069526	713.825125	-204.557042
11.2144923	511.354382	-75.8319628
132.482905	293.23514	192.322345
141.118512	-498.188928	-131.470311
-155.762047	742.481066	-152.586512
125.996208	-714.038236	129.638481
198.105502	-723.249331	79.2464232
115.546048	-783.24309	178.805599
-211.649867	691.912669	-88.1413138
-16.224165	-917.241391	6.07702017
65.5616474	475.245662	-106.869528
-99.0344322	577.819543	-30.9956169
16.6818094	268.529453	12.5722408
24.4457674	877.872752	-116.799823
140.4145	735.123106	-179.653068
99.7060418	-30.6257498	-187.453637
173.657033	-733.891542	-144.68233
-162.597524	56.0178339	57.6924181
-140.669791	-516.680757	188.498719
7.45399237	363.8358	-141.383998
-15.189364	869.246298	63.3951402
-85.7302356	-6.67416394	1.6338563
-27.9334772	70.4899991	-87.7141702
-76.0534942	827.749658	152.263322
10.4948759	272.31655	-25.6734741
8.60785961	547.633198	-61.2312818
57.0184612	710.313581	128.366597
-166.030195	-935.149179	-46.9280171
200.893042	-613.894469	-72.8530121
-80.4579353	599.95702	-174.150821
66.0783792	507.535486	37.016592
-99.7478855	449.417526	137.441647
93.5569263	939.937614	-62.6584244
-112.015524	253.536477	198.885255
42.054038	295.343592	194.552214
199.159369	227.174463	191.494939
-148.655405	-579.547129	21.46106
103.54084	-230.35547	-127.252816
215.432734	-95.4970253	-160.424972
-123.588828	136.717881	169.743059
91.7993093	944.618554	188.372414
18.1028414	35.1577544	213.994288
134.596593	655.537415	165.471177
155.852513	-389.806338	-162.604946
-29.8181593	-17.7717531	201.994326
175.280819	108.015339	7.13497877
-178.466097	-103.132215	203.528864
-65.4225707	12.9539037	155.214067
140.528033	-197.403357	-101.382345
33.0975819	214.959801	139.559689
-5.87618113	-309.941566	181.089652
32.8580856	-131.446114	-77.3018277
212.587314	475.689924	-143.233708
79.063077	417.947192	29.721818
13.254118	-170.410334	161.252928
185.518024	-214.706392	-88.9287245
-81.2792039	683.429369	-16.2189722
169.307864	660.675683	121.786849
56.5842366	-36.9933707	178.970246
207.804601	898.738035	184.45107
162.944613	707.574235	17.5674629
-161.102659	-839.872753	206.882546
107.584765	907.561181	6.0175395
-1.13160133	-149.245041	-71.8267214
-79.896698	-459.922669	30.6634641
192.047391	-277.99309	-26.6234469
161.875875	-537.336628	50.1500964
-145.132598	952.629031	-117.719413
135.068636	362.246655	-107.348875
-98.815012	-607.988802	-188.854196
135.12156	961.042026	11.2080145
126.848528	882.487319	-152.935417
180.042446	748.838106	-212.588383
100.930982	16.3506234	151.049869
173.022521	-262.989765	129.668064
-121.764328	-292.379513	-111.344996
-180.796825	418.537846	-53.0648589
-39.1492152	-688.700297	149.055352
70.1137018	-944.751505	73.9819646
-154.945302	627.636557	205.758917
80.8854461	-254.081455	97.7554536
-161.433527	-164.443844	-158.116122
77.1339154	-46.1727816	-217.45385
171.044736	-39.9589527	-106.455222
156.931689	-264.964603	-88.0286467
100.445774	-178.511004	-116.111271
213.35988	-2.77975976	-40.4281676
-204.983871	-568.904064	-216.992261
-78.4689653	335.595443	97.8005362
214.483194	501.019566	134.605327
-144.20575	-120.915474	-100.460342
-210.962119	856.167395	-91.511426
-119.817333	774.274709	202.69506
5.91245174	-110.70583	-64.5311868
-146.285987	6.10079765	-157.792959
50.6793118	440.734643	123.645489
199.954097	333.787984	-72.7122831
182.833579	690.481826	58.6269307
-18.5458648	-271.984683	91.4497423
-195.341489	85.3646827	148.004134
-5.65176487	951.181074	-114.801077
161.536641	-927.800174	-23.3703291
-200.863223	735.106339	22.2393966
-179.384051	-544.692824	218.504276
-180.420776	-653.694571	-34.7392142
146.406076	254.460616	174.336078
-114.666629	127.171682	77.7405763
79.7959113	-330.276209	-17.6723146
-20.8329463	718.298272	-218.501428
-32.4612987	829.418242	-146.323438
-218.857229	-21.8364269	-18.6176717
-156.265429	-323.274977	-145.191495
43.188026	182.483692	-134.604094
136.529007	-136.257835	-138.838885
90.9763885	3.52090955	-49.878788
168.693702	743.320793	-58.3624279
-24.3666041	738.400261	-137.383832
100.233054	833.53258	-10.877763
217.47278	-474.436924	176.324511
-156.006054	288.169258	85.9765768
-176.329179	-865.112194	-181.701027
23.4725714	-603.608826	-195.104458
6.92086935	904.904743	-150.767644
-164.518254	204.501489	-4.19493437
-52.9723334	116.389598	132.340288
-13.8254786	467.749405	81.5142155
215.120277	640.370989	117.835922
152.592223	-459.37399	-102.088035
-142.386351	-656.882747	141.993911
-104.281464	826.565229	108.296015
-144.047909	-753.749965	-120.109327
207.328205	-779.744136	-45.9306669
-42.9227889	-61.9643193	196.578858
133.655	364.437438	-219.48219
143.544867	-547.065325	140.408967
21.9446158	422.474571	-144.15794
-59.3145514	-627.608284	-105.829338
-121.217489	-867.558439	-24.0350544
-48.9293134	405.849898	-162.188719
103.636329	790.444251	-99.4859266
-213.355268	958.888361	-62.7359617
-89.39206	-793.147014	171.90634
-3.33428741	-859.543547	-117.679143
56.1289263	787.10026	50.3919268
-50.4188478	261.055629	144.450347
150.08719	-310.370911	53.5740376
-58.6388898	-193.677719	85.8303666
58.0152082	-921.250095	-196.891425
56.1583519	548.662101	-4.42807078
-23.2077932	-65.2744299	63.925457
141.937473	-732.288753	-17.0544946
146.560338	-323.655988	-16.3296199
-88.3890975	528.03826	-99.3434799
99.8834085	94.3871796	-74.8532987
131.384559	-33.0879813	-190.317642
-97.9974413	864.688739	195.182924
-211.297399	-62.8189629	-216.47882
27.5846577	-24.7956491	-60.9155333
69.1889715	-460.456778	49.4877315
113.708205	217.945561	173.969648
158.314614	642.587674	-4.59079027
127.67992	924.255234	135.736692
-117.965899	-419.001823	168.241749
-157.389753	-80.6981391	-151.820521
-17.3155355	-803.795745	29.2938876
-87.4708843	741.227373	-125.979633
8.14074755	-378.529229	-130.527806
171.383629	260.980699	-132.152274
-20.115664	418.558081	-212.284932
-129.256296	-722.944609	173.497658
12.1612	720.533111	-157.171775
119.502745	-872.092308	94.6989655
-203.169904	337.169093	168.156724
-117.405474	-475.445129	-83.1138992
118.123255	-897.664238	-129.05027
-206.560926	-7.40172684	-71.0737979
21.3265991	732.698051	-18.0586636
-106.398089	-525.769367	67.4668121
36.6621995	553.155369	-44.4077468
-120.091919	659.771664	-135.89054
48.6501503	421.282164	34.9066281
-130.198125	587.663497	-2.48666167
-189.201927	-740.91684	-115.981905
156.061456	-110.72543	-135.972661
215.174408	-961.328505	181.730144
91.9425035	-313.930963	-139.595435
-167.967024	-651.358958	-129.355161
198.71733	-745.878205	-25.7285488
190.502808	-365.670549	-119.928138
-160.533252	60.260756	-139.42408
100.351307	42.2402763	70.5241919
-201.670216	700.632901	168.869023
-60.7710671	-933.961133	139.452844
-105.148077	727.516882	-71.681062
146.076362	36.2865639	141.664722
-100.698042	-888.764175	2.52352238
-23.6351335	-678.034597	183.037512
-38.0357099	-139.385014	-57.8267348
136.920824	689.38655	-199.335495
-58.5619557	725.384494	177.755849
-104.618809	540.501995	-183.77075
134.595282	576.263701	-210.174302
-87.5311255	937.735846	84.2335153
-22.0846629	768.261908	198.737104
-163.061109	-694.092409	-139.925326
-64.2529809	-428.291895	-112.638025
124.020181	-310.610272	25.5707335
-88.8880742	69.1192853	-141.785617
138.504195	189.18185	-29.7975588
-194.940733	-448.300915	-215.358275
-117.603907	-381.544359	83.0833983
184.27887	-541.036422	-169.824907
-84.3805647	144.469455	-176.275333
123.071978	-596.198254	-198.055733
38.4631157	83.7548399	-29.5320988
-95.0145698	115.911571	-78.691467
-17.1298158	560.337104	-40.7210076
-16.1538136	-577.677401	-212.038893
198.861337	-114.498651	84.7960377
-40.1764894	-567.348858	6.81129694
99.7746491	36.5569139	-93.494482
-119.632183	821.77224	-115.624601
69.6667314	-110.665417	-12.6642549
104.388492	-537.239785	48.9077163
82.4005246	-906.570748	-79.9126828
116.818142	535.764395	67.1169305
-144.840912	-29.1418314	-6.60057068
2.64054298	-890.067778	189.364834
-4.39452767	266.492347	109.740362
164.785235	-88.4047902	136.554945
153.655322	322.695078	-128.714216
-116.573243	757.61708	71.92065
-3.37864876	265.41245	-88.2731521
-48.7082541	-459.778995	-204.826557
-44.3934405	176.666889	-149.041643
171.320817	898.022729	-127.180734
19.2759848	526.304111	-110.06584
-90.3597486	-68.142013	186.502051
150.56057	227.535007	-22.8444052
-35.1550019	-550.526741	-80.2500415
-181.767454	296.310631	2.09344149
-90.0010157	-246.209276	29.1742706
-200.117228	-502.124411	159.959879
-183.030746	-250.618073	109.856176
72.9652071	147.787082	112.962101
45.5640268	-587.33666	51.2299275
-45.7951307	52.2664678	-41.3940859
93.7212849	-932.521036	-26.4075673
-85.4996169	670.587629	85.9445548
-73.2815981	713.480307	-13.5756755
-35.8165538	145.348613	-108.391911
205.811186	-242.523474	199.705448
129.280941	-391.781061	137.180593
-3.34998369	-224.96674	63.7547779
-205.047465	-908.925809	209.557235
118.475366	148.430927	9.95254755
159.93402	-794.170063	-210.264775
208.78758	853.056983	-74.1782403
201.406181	-527.467698	-148.026721
113.891604	561.760777	-106.041441
-151.205212	-653.347239	-48.1861067
102.381964	-356.619779	-167.896162
217.263129	-527.873887	122.799542
-145.835633	776.256312	-138.348006
35.527451	-759.07913	-206.916568
-153.923883	416.819192	201.353257
191.95914	815.810549	183.760564
103.707952	-577.388897	165.412195
-130.883458	83.3944118	100.207353
-56.323117	614.584943	-110.788873
174.277725	113.027799	-60.6102753
-171.455095	-846.451187	175.932667
-24.3961084	155.432737	-61.0003221
186.635253	791.013975	158.850255
162.839026	828.929114	-123.922889
208.260567	399.014946	-23.8108873
-32.3055947	317.928916	125.789311
40.2950311	-0.778557062	182.127941
-160.458672	805.06593	19.6550298
-122.886881	-245.199164	-76.1271369
-102.169402	345.127997	14.0347624
199.421761	-905.706731	89.7758913
-123.109468	441.696941	168.320034
-46.3499951	324.171017	63.0847025
-213.647164	-594.806726	121.726398
-190.480516	141.543478	121.600094
205.213075	508.807681	-143.929656
135.940022	966.393985	203.999596
-37.0022857	417.483966	155.672235
141.331232	-776.402284	58.8308382
-70.5408716	91.8046319	28.6028051
-147.732032	412.069798	1.92294598
-193.377687	889.975481	-194.962003
-70.869956	206.39949	219.589064
-205.079617	695.330203	-13.9043403
-138.896589	-123.780571	205.052178
-126.362396	-865.785308	104.560771
-32.9276764	-383.647261	186.88225
-126.051834	55.0928855	70.2796078
104.936223	-111.398588	185.757914
-60.8725226	347.628561	-53.8854849
-119.849348	139.698322	-80.0792575
-210.168291	-796.709349	183.292534
136.371388	570.094448	204.56023
-31.3816118	-118.224636	111.956017
53.1061649	800.614984	152.828808
-103.975288	690.741885	218.568635
-126.151552	227.791828	-112.181974
-130.388271	-143.444484	152.857211
157.165389	-493.697886	-67.9136252
76.6072965	698.904303	-95.424509
-179.081625	199.085702	102.815061
-186.598757	21.5418518	-8.29976916
-55.9900725	-827.305526	-89.8202002
178.753567	-931.775777	-197.822213
-72.8812313	-179.924445	19.2496538
-167.900735	-172.899045	212.430167
-8.8075316	614.618592	-157.255921
49.9884915	625.302273	-159.510961
142.045262	149.493941	196.785965
6.94856405	-438.309876	-207.857476
-40.4205227	890.439863	120.774839
79.7817755	157.76413	-101.883695
-6.54276848	-8.21618795	-106.205393
-199.166205	-964.064917	5.99275589
-1.45214915	379.230832	-39.7809875
156.516557	886.362065	-195.456741
-38.8146889	852.481477	121.559942
31.9327521	-562.367388	-79.3251669
-2.06615329	517.210153	-197.553809
219.380515	-938.512773	-60.8862519
-71.8767083	-553.494954	150.157764
2.86747694	-724.618194	53.5990047
194.708626	-459.571607	-124.061074
23.6517477	-920.285874	119.588294
-120.800901	-104.273397	23.2729125
-122.416111	80.5789793	38.9152002
-214.171845	-26.6917413	96.4357591
37.5665784	-577.13118	-18.3015037
174.03398	-573.663288	46.4195728
128.385375	-280.53349	-4.01651859
-122.959082	125.380064	12.9651856
202.313445	939.246938	-204.521081
-173.294626	-377.258422	-204.856866
-23.1740141	236.786226	106.700265
138.213034	300.563613	-10.6010389
183.058887	902.46905	-24.4143879
-17.0999968	-185.515069	190.849175
-162.809253	-358.171228	-114.821507
2.28444576	397.37527	199.165218
24.9140859	704.421154	204.876699
49.1241074	3.55559945	-177.712976
183.986948	58.7244558	-171.799308
-209.46905	154.19396	149.834607
124.44103	212.589903	87.3248053
-167.596401	-447.487668	103.179629
-203.317879	-130.243242	-99.6710432
-83.6850762	546.474093	86.6354275
4.73372221	-536.20276	83.6876202
-75.9768748	-323.712301	-32.5229561
160.454738	-189.098189	54.7732759
184.153378	-750.918865	-196.077632
194.751873	-520.884913	163.672726
67.0843053	-40.0293154	134.209681
-173.635735	153.338507	-197.482812
-172.055992	-460.115371	73.1962323
-25.2791917	98.7892127	122.330279
29.2252803	-150.776138	-103.177649
-11.5976942	683.998168	205.959074
200.552969	853.418452	135.112748
-26.7959487	610.650067	215.805354
-123.004099	219.267594	127.912388
-2.99382091	-291.854077	37.3968959
35.1152039	533.534297	-79.9921083
-63.0916262	656.471267	-5.95874071
104.109604	83.6312282	-29.2861509
-156.647018	884.642024	200.807807
-112.758259	351.998911	-191.382948
55.2537107	180.271401	17.2948432
204.360991	551.280726	141.398528
101.683879	-922.741381	56.0731435
-1.48007989	-217.186142	-26.5444148
208.622172	47.1103919	-87.7767587
59.518013	724.157512	-127.516027
-146.026546	-179.007012	-20.7573497
28.9359808	308.10092	-109.285196
-189.006707	114.093704	88.9934897
105.804174	-785.810692	107.188332
130.517735	-188.962436	-196.217097
88.8317013	214.586885	125.337174
-198.5436	466.148928	214.059722
216.880386	-834.428447	201.001041
126.938221	-41.3633156	57.0750046
75.0551343	886.704917	71.0126781
215.519333	21.0638249	10.4470134
73.0401611	617.351116	64.6698308
133.119516	276.963031	-49.1049492
-0.47950387	-83.8574642	92.738018
-187.946506	-417.116196	-62.6217866
154.975672	792.484711	-88.0322528
46.3439894	241.960225	-150.457324
-149.042272	-477.238076	87.5633049
-201.948909	519.865319	-97.9377902
213.161087	687.695649	64.6393561
186.832893	148.307315	217.646816
167.636085	-841.097855	45.3899646
164.32009	552.847091	214.096334
70.8164024	383.939986	-172.954071
-33.6360025	-916.730091	-210.277295
-126.188897	268.284658	-56.8544829
-152.623301	681.341268	-0.59358716
136.402047	968.615988	-86.0030389
-100.74142	57.7622736	-183.72294
-46.0510314	229.291126	134.031868
-158.879458	481.82784	46.1513591
-201.606984	-587.859321	-163.603175
174.071693	-753.098952	-7.71486282
-17.6516092	500.700303	-88.5455096
33.920188	-876.709578	-166.964042
-183.05392	642.072066	-97.6770377
133.554974	819.096608	62.5016713
44.8370934	-356.320117	-125.777221
-150.448185	-592.663931	51.1300588
-12.8457522	253.45565	-213.786393
-140.465149	905.244358	-197.790932
201.566002	579.650939	155.007432
141.333539	-231.726935	-121.615797
48.7494946	-42.0765978	208.448451
201.171589	103.488307	-72.2043371
-177.338127	-967.998182	-214.525932
29.3396521	-305.446448	-133.33177
214.881358	86.7443001	-219.758285
-73.8775718	849.89361	104.08052
92.3400116	877.608646	-166.134637
-62.5018024	-58.2111031	27.5678205
25.9247065	426.167774	15.1804996
-75.8183122	325.39453	-187.689144
219.82523	662.046397	-96.4704561
-18.2871449	-784.584751	149.091544
-30.6359792	-54.8749173	-140.895092
189.287362	256.414236	120.633507
-32.5456548	-549.691495	33.452971
-93.4393287	633.805925	-139.97585
20.9418368	-67.6212597	184.4453
-194.083974	617.652456	84.7710705
-70.230906	204.975816	-88.0164516
37.7404308	623.779849	-48.2744753
-121.116604	-496.588885	39.9304366
115.329945	-169.524412	-37.2151756
-167.941697	160.43768	-44.99681
98.5509419	-578.133776	-36.7464244
-198.395731	844.066401	-60.9316623
-135.158073	927.719483	-65.1144278
-17.2884309	-260.428667	-206.171494
216.23179	756.511513	44.8740458
-138.817387	715.214802	-74.9486041
58.8532352	168.294365	-9.99523044
-136.622005	806.239142	119.384675
-179.073715	432.584019	-119.301906
-84.963491	-597.236898	-24.3343067
126.218212	-520.15813	61.5629363
-184.427122	-340.782682	-27.1065044
-79.4561267	-140.119284	-182.715627
-172.244653	-10.8030719	-5.7626617
-97.8381443	-138.994926	175.454671
-130.322037	-856.640753	-74.3347704
86.8481469	-130.405764	-91.1736608
-142.018616	779.500049	106.635199
-61.7256427	-336.551844	219.721453
62.0139718	-868.655702	47.6549244
219.152374	-596.680039	-153.780066
15.5715823	-236.697593	-134.025338
-141.722511	-69.7135812	131.952457
-74.9701095	60.5386221	-39.4766736
181.947846	-764.026922	199.300046
-146.407499	-53.5612684	106.152692
214.11207	-388.129197	64.138124
65.7387257	-826.287131	16.1797905
49.8720741	-51.8520969	-198.93016
140.783947	428.308257	198.300467
-19.5780301	-115.275474	207.858129
199.674528	-167.740657	141.876655
-140.241448	-302.058459	40.2555084
30.812664	424.561632	-173.790806
-146.394412	283.288735	203.184333
-111.873425	-861.313274	-158.792105
110.724258	-812.474869	-213.770263
50.2986145	411.436591	-204.119472
182.717214	860.269476	-157.973682
201.834846	-362.757927	-180.992756
-152.198786	207.661508	133.960638
24.1291142	-626.336755	178.13458
-182.251678	-253.460911	-103.632907
-112.330453	587.79925	116.14269
102.046192	749.622329	43.7632155
25.7666159	596.53914	212.646296
78.8710499	-174.095038	-23.0562198
-79.0214825	-591.397778	-132.437292
25.8861542	591.765925	-132.228939
-214.79921	-793.071477	15.7894421
91.1648226	610.690423	91.2816596
176.048193	-407.764954	-122.428568
215.666094	859.551742	74.5881271
127.175777	952.529124	147.316723
-101.852027	-678.318014	-111.40407
212.997358	-688.842208	76.3522744
48.7371945	-87.8888357	-216.962367
156.559436	-910.521104	95.7613826
-6.72952414	12.9947221	110.185182
-187.66673	759.092904	98.9236665
-206.126493	-161.899571	83.3735895
186.724422	773.919485	16.2159562
198.857796	-561.114793	97.5608039
-100.611863	-521.892568	197.232516
-161.763169	-174.283808	144.777308
-154.026663	-45.3021228	-209.842037
157.792585	46.8231595	65.8148336
-160.646228	480.095195	185.375879
-181.415527	899.881645	47.9910636
170.60267	-651.590195	105.30921
-192.567352	-881.909421	112.774034
-95.3889203	-322.729825	199.093254
-204.29676	-264.513692	-142.891655
111.222684	26.85727	-59.6569455
26.6602683	602.230712	90.9644556
105.677476	399.498639	-83.7375939
-158.797252	-707.411626	-61.0161626
131.617734	-617.657977	-19.6107602
-172.919987	923.899662	166.964829
-100.437604	-167.380865	-29.4269979
-24.059602	-863.935491	198.884416
-147.264966	-803.169708	167.871726
153.424218	-371.612177	218.301156
-9.25246954	-821.088922	134.64679
17.4278617	-693.795406	-98.7631893
-161.199374	-480.135608	-89.4606936
207.02991	-309.192206	-214.577865
18.2723927	835.636407	-128.744737
44.0427852	703.82495	-159.934695
-11.9318008	705.20769	-185.464103
100.389361	-480.403761	102.207665
0.749907494	643.824947	-80.2297294
-69.0926564	-5.87195992	-119.993362
-156.120517	-595.986732	-128.959764
150.227604	-153.602787	217.188253
159.0892	515.562152	35.7953501
-4.80472922	-159.477233	-198.781746
30.0600028	-180.886627	-211.847434
-70.4608035	286.158168	55.1156306
218.7989	-873.285908	164.157147
-78.6264265	-561.933851	100.282097
-28.0794251	-680.945976	-83.1437576
-208.666108	199.796267	-11.360991
-175.014851	564.772786	41.0479021
15.9016371	807.526716	-164.810373
129.305227	94.5307958	-110.379504
53.5461068	508.751136	72.7015829
149.288528	409.478577	0.268371105
-89.9283564	320.973418	64.2207623
66.3792443	-341.778803	24.9587488
-205.081289	83.8670039	-172.1268
-29.6496701	498.144236	-27.971977
114.586201	153.076599	-75.0525773
-166.161883	427.387587	-172.863302
8.59448433	-536.484355	-70.7335806
113.914237	344.884937	125.527732
-134.091237	-705.74839	-209.133803
73.2569456	371.974629	98.9131236
36.3171959	507.779588	-168.261307
-40.7057047	-845.847742	-213.590425
-145.593259	-557.686535	-4.40333962
-180.021327	-966.784157	158.460326
-128.600363	-576.892397	-203.073541
208.616009	184.08891	59.2089128
-72.2593069	647.793819	-59.6951437
-47.3170674	51.583308	-150.628095
-75.6875491	607.831975	-47.1328688
-176.463981	-58.1647921	-106.30281
-96.2892342	207.640579	154.840765
-150.544598	690.480092	-208.135473
43.3016896	-490.046861	-62.978605
-162.062027	-784.234137	12.1208644
209.890909	-274.447377	-175.808949
165.732388	-124.586417	-48.4797466
42.3069096	327.628444	208.008194
23.0012369	745.415716	203.751025
-2.68249154	-21.3418645	-145.39301
-168.242211	608.122098	-203.197716
-131.544124	-912.085329	30.5821633
94.7139406	-810.528867	-55.6453836
26.9313145	461.869698	27.543273
-193.059624	-897.742868	140.547571
181.936071	853.731701	83.5720158
181.232295	-711.701987	57.1538663
151.937437	-572.664565	-27.416234
178.649213	599.5715	-40.9819567
-181.387445	-649.867379	219.10244
-148.717764	-876.550879	-172.475035
-67.9073048	-354.878115	-163.070353
106.279337	-346.481771	155.424452
38.4096146	30.5119669	-120.566919
-144.912477	654.423637	70.43185
-52.5508416	-472.753597	148.307674
96.4083004	416.300809	-205.305649
50.3327608	-224.986687	141.447833
-98.2859802	772.731471	-24.8468161
-147.448201	668.720965	199.411795
26.0576987	-419.758236	212.680206
118.001015	485.057123	24.3729639
-110.447744	-156.39914	-202.348453
163.13719	-496.69651	-110.360195
152.305624	-790.041126	2.4964571
-197.368398	-580.289001	-45.6255794
-55.8300149	-305.668232	-138.69655
-124.268758	-357.706441	119.967942
213.089201	-807.095983	27.7922893
20.0191259	-382.094368	216.246502
145.833824	-968.61027	-161.037776
219.087806	-929.505941	42.7399015
64.5278955	-809.600811	-205.574458
-40.0544333	-286.758072	-34.7180891
-43.9408183	241.57482	-200.933781
-26.6274071	-965.463993	-66.0679543
-40.9401917	-712.809115	120.930438
-94.0462518	332.584822	133.641388
-210.477764	271.005156	139.164121
112.866113	-390.251063	-218.746399
-209.184557	306.51721	126.737304
-180.901126	-833.08826	76.4367747
-89.3277538	-771.873691	-196.743687
-207.444238	-183.554107	217.589276
23.1149793	-734.404852	-178.576216
-48.757782	-903.353064	-80.8047616
208.290491	154.99495	-76.8880332
67.3401403	541.700878	-136.63239
-138.387306	606.072041	-133.047375
-122.239091	-837.025911	-216.457868
-70.9461164	-733.709464	59.2296839
-184.814678	37.9545701	129.053562
172.619951	353.972766	-196.087878
-10.4353034	-248.315415	-35.4124367
-65.5134177	-967.771403	138.69693
77.5521421	722.03715	100.848475
105.212331	777.687155	-172.304173
61.1613631	141.986815	-35.4662919
-84.8186445	586.450853	205.359678
-208.616073	-694.686878	115.134377
149.666471	172.510229	-73.8307977
216.920013	-463.950398	132.782145
118.081608	-408.335487	-46.4022899
-197.360206	-674.939767	-95.3796625
102.59728	-532.759989	-125.890471
213.883536	-442.24984	-170.740904
82.7491736	-953.343038	175.03752
17.9259467	-15.4207605	-209.902368
68.5472989	419.733722	-129.832934
44.0743613	832.746854	-90.5784082
159.317524	836.914846	35.1242256
90.891993	597.035899	-85.3802752
-147.017543	204.364464	185.039268
-70.2955139	814.253782	-210.494198
-132.341704	-840.151558	62.5305986
217.874432	796.25851	20.1924801
-166.732404	919.982363	98.2067251
-24.0285766	-547.226373	-156.491655
-56.6866362	506.637943	-101.597215
-101.344396	184.041153	-216.623789
8.99395943	-155.269232	120.11389
-125.815111	941.429396	189.853845
128.547242	-323.80105	72.0323992
34.1719842	-382.559675	-28.0458951
76.4278054	-449.992337	-190.570547
45.6589651	788.267807	-53.6748898
-219.001635	502.477698	183.765705
116.005712	-299.498807	-160.478748
76.8615317	-396.280977	-168.278623
-51.1820912	851.673549	47.2003222
-83.510673	283.72074	-2.37765312
7.20395327	-123.862959	78.7994528
209.705098	188.64485	-5.82747936
191.856964	955.692728	68.3790851
-219.45837	-274.560351	72.653904
219.863625	-116.426947	-15.5705988
104.981332	721.833636	-98.1903732
-95.1192248	250.76036	152.399225
-32.5876558	267.839587	211.888626
133.441966	348.839586	-154.29388
213.771865	694.614897	192.213008
-176.463748	680.409497	216.160953
211.596127	-786.482274	181.298122
207.701349	752.511998	-6.85759902
43.9631629	779.048156	176.310899
112.545185	725.226771	-155.919213
-211.000745	739.039828	110.469184
-53.1085515	478.19731	-51.6630244
16.4320588	732.647172	-109.612287
175.587349	-882.885429	69.7534084
105.785789	308.203024	31.9116664
113.67322	548.438582	185.73751
218.498323	798.808218	51.1449814
35.2198982	323.426803	-29.3590856
-49.4652951	-201.772724	-33.0749226
-165.730326	756.086446	129.992795
163.991582	-85.8902925	189.097538
143.29016	386.794387	210.386162
-203.244007	-729.024997	-44.9009931
-45.8027363	205.897295	-67.5794661
197.905791	-948.411951	-30.0407529
37.2215223	-334.31105	-46.9097638
206.593063	-748.835909	-55.4150534
-105.887271	289.031186	-131.266109
215.406928	-39.2880499	-184.05766
-214.966733	-931.290408	-218.441881
212.685766	670.872202	146.599126
-123.941883	-959.981612	138.702884
36.1097217	247.275412	53.493576
193.709388	371.135596	37.1350026
3.12858343	260.945662	-58.8702035
-52.6887774	116.020728	46.001687
20.8459806	148.262565	107.611856
-170.067416	-41.944198	130.464339
128.735938	203.466111	201.749794
-117.285031	733.831832	105.458961
75.7528782	-451.146933	182.18931
-159.234893	-864.734768	-4.16948199
95.7433128	372.702539	-100.987905
113.369102	-369.056688	-17.442168
-110.608923	556.29388	-4.17908072
-164.154971	837.498561	114.163306
200.199652	396.528605	216.352928
-14.3095064	470.770664	152.324533
110.842774	171.912638	-124.287109
-86.6477799	-198.181452	48.0331302
6.87410831	-867.059663	-51.6383326
161.341598	-900.258154	-166.390511
-154.591388	-318.146942	179.749186
151.534526	21.0428953	85.0475192
-36.3013422	-530.259628	-186.504113
178.69545	373.262897	-48.8980913
-103.388847	-929.204363	213.19442
-142.603614	98.4484422	-153.571503
0.425202847	-290.605298	-147.341159
-38.4228456	365.404477	165.889666
87.4654818	-909.225812	-128.388338
-128.188148	136.967417	-216.701396
-174.490071	-109.020248	172.826061
4.94728088	-612.436858	155.64677
135.90842	-967.280339	-69.3209803
123.319604	932.117469	-54.6012592
-192.468165	-367.991072	16.7106581
-191.657711	-772.074589	-92.4270165
-52.6252449	-924.740408	-17.211169
-140.642759	-611.695245	77.0480514
-128.96796	502.789792	219.168425
-141.957077	117.136587	-56.9658911
111.813531	337.100176	-116.218778
-48.9872599	635.230176	46.9791055
59.2501926	-152.989643	89.2856741
-9.60510492	-511.98279	46.0985923
219.259586	404.19253	-127.439434
34.2396212	-951.301716	77.6728082
-46.6759455	165.152732	86.476891
-108.023199	691.049122	14.2795038
96.8897319	-501.828101	191.639576
203.559811	-269.435843	-88.4463751
-194.802761	488.195634	-10.0136936
-101.58856	-876.717838	174.260101
99.7166109	776.472777	-22.7113473
57.9222107	-616.427411	200.175734
22.9650974	636.927785	-204.399381
-155.972202	139.113334	179.597704
53.0029917	517.654647	170.24075
55.8076572	-664.314307	87.37432
170.08384	-645.870206	-153.366593
40.1685953	-12.6897401	98.5075116
-140.199342	-529.561349	-39.4837022
-103.569492	-706.405301	153.383751
151.531982	-159.583442	152.789207
10.9055233	-900.245239	-105.255761
22.4365377	843.677527	-52.473501
-162.167318	344.305962	23.4672213
-31.9587421	-842.405	-101.810944
-38.1582773	211.177214	190.129743
-140.175928	-94.4823456	150.556426
-106.499597	-669.410658	113.997662
162.357621	-180.892755	195.703669
143.505948	857.287185	-39.7257161
6.79383039	-638.64797	-217.308056
-102.820096	70.0268888	-214.670481
59.8055029	-655.099917	7.93589592
56.9962478	-967.387352	59.1462851
217.963338	147.933705	-159.85885
-179.534637	597.746117	-44.066205
-208.477343	-810.049583	-191.504853
206.380081	881.327057	157.959828
135.023291	653.912193	-107.73028
180.660384	428.999164	7.18202829
-186.882742	67.0406663	84.717989
-202.025566	123.276931	148.514624
-106.371299	563.966708	-160.288662
70.8754635	-568.877527	49.2645216
87.5755262	956.056625	-88.075434
46.1596465	-347.266283	69.1983867
68.2367826	-878.22682	184.270687
188.981435	422.388425	-121.616597
120.698049	-243.528151	-174.770398
-125.636498	-560.855515	-106.638896
174.744496	757.912869	176.931906
50.5235291	-829.935758	-115.425146
94.172976	506.958246	-1.7841053
188.451984	-880.413787	122.991438
-69.6799099	158.839401	-143.716785
137.025151	243.591807	-70.075202
14.4487929	-192.133036	218.538527
21.6648102	-385.123606	-95.9249544
-32.9951954	478.573002	46.1371183
208.756187	923.045828	90.5478024
-175.22717	533.695836	156.993032
104.310102	780.165402	54.5964861
-161.862651	820.163091	138.859637
199.762673	-388.314267	-73.1528151
7.33917475	416.501548	-200.01714
155.577192	146.557672	-218.906568
57.3615766	505.713341	-98.6354291
-51.900934	357.682042	-170.814478
-95.835799	-909.683679	136.533282
49.0930295	-923.313436	-65.7291925
50.0466871	-794.22626	34.4880867
-76.8147445	20.637486	186.529694
152.566206	77.9150259	-8.46517682
-106.358343	-104.994138	-138.905513
3.95533323	117.706195	213.307035
-171.943748	-441.400342	146.214075
51.0002661	685.019785	1.86076403
-1.7711103	-737.000119	-157.636835
-177.553148	-821.412159	-112.090773
-0.200130939	216.609653	8.24481249
110.639784	120.418367	41.5635848
-103.339411	379.690242	-12.5424349
91.5042138	671.191465	-166.246134
-98.7659824	817.617084	12.294507
160.121143	773.334497	-218.420204
-125.621602	-566.924687	-147.274787
-39.2566633	-683.203798	111.35148
-70.2770376	364.948536	187.123504
-106.564401	-912.487049	-90.7471466
-163.900971	-513.021058	214.813485
-168.978674	-367.28785	209.593349
212.103312	-934.536403	0.256385803
134.505668	-968.749046	151.137857
-212.418174	43.8833058	53.7696838
-32.9787123	-233.776414	-13.8540125
82.4262524	-585.463665	192.689614
216.645794	222.32759	-212.446622
-183.609951	280.653574	170.742874
157.760406	-351.965666	-156.081676
49.8974347	916.376463	67.7650809
168.061655	189.478102	-55.2046156
-201.773555	672.660351	198.734455
-72.9389942	-727.711854	141.235034
72.9726028	352.847773	-208.827653
-20.4821861	-660.147558	-57.7621138
165.600708	326.806756	113.637264
-207.625813	-610.044006	-93.6880171
-164.082652	207.804315	42.2756743
128.473127	597.433908	65.7618308
-49.4050539	-763.893958	42.2286773
203.123829	-439.589471	163.521612
-191.069353	-251.914204	145.493646
-204.19436	588.264904	127.485507
92.5914407	-372.768103	23.453505
214.879391	-263.362103	137.643981
-135.206041	-31.9637972	-66.7583287
71.1218309	71.6574299	-100.618813
-133.48434	-963.382058	-89.1110873
-13.6830974	-322.250411	151.263113
186.821773	-599.72321	69.343338
-73.1139481	359.776156	-117.107533
14.2688298	-568.148287	-106.268637
-86.9397414	663.773144	-181.009302
-179.107199	83.1335437	216.209707
29.145422	776.18381	-176.639351
-50.519228	-658.706019	24.9191475
-106.515595	23.964479	196.542745
91.3836527	707.922175	-45.8195734
128.957837	-558.176443	-214.685043
116.324568	808.060825	-165.798573
112.988117	542.674392	-204.661198
-139.925594	-647.124708	-218.840069
43.462193	895.441916	174.823148
-143.813225	-374.94819	5.51389456
-98.688314	-150.285912	13.4122086
-214.539037	-621.559608	26.9329143
130.18254	-636.326811	55.9290314
111.735325	-264.647942	70.5849314
-152.155684	-559.604684	-45.1970327
137.771676	-172.793588	178.778639
-120.923337	-310.54517	-77.8386748
98.6109209	248.903641	-191.228666
-55.4724228	502.657623	219.788408
-80.4290342	-616.694494	183.391957
-126.273942	154.079599	201.429207
58.066349	-386.468533	148.093328
8.83002043	887.388192	-58.1781507
116.438153	-913.257646	85.1227355
63.051343	264.279593	-11.2765956
41.911788	-761.943822	-77.3997819
-97.5217271	-100.45797	-217.897794
-57.4477029	-18.0022675	70.8603573
-218.827392	-360.241058	-205.520388
-218.290368	198.433647	124.387345
148.123724	0.127196312	-25.7205629
115.046442	-210.783195	80.5077124
-5.99501133	-415.663151	-65.6086969
201.41376	283.864472	110.619538
109.852924	399.239968	1.80920362
53.0394983	513.065519	-202.432462
39.0469074	-416.587926	126.658416
-141.532779	-248.497364	66.6339254
132.241678	-719.191653	97.9147506
207.393901	633.158611	-180.247501
215.526676	516.226001	-212.518497
151.283622	252.010006	-170.916795
-74.2901337	554.676868	-183.984335
-71.4865565	162.006011	121.622281
-209.678922	420.032865	-131.996353
-14.3598473	528.332199	214.133995
172.164614	-251.437738	21.5263891
-108.350841	431.78407	58.3650899
-214.264034	-143.455181	-176.67214
-118.194924	-292.002492	-211.68154
-101.446651	674.977636	190.260348
-109.055167	806.485325	-216.191897
135.199163	-81.0615158	-142.067561
-141.019089	640.468352	-216.873253
219.637215	669.731367	-41.2456858
-190.364544	-75.886187	90.7208419
-117.175701	829.024743	-40.2084458
-20.1408672	208.28107	150.486271
-53.993746	347.528423	19.4367504
-42.7786112	-11.0678136	-154.420191
141.292548	-88.6250132	23.7361169
52.3041463	-525.021192	-168.730815
-18.0598962	-43.5320705	-81.7963684
-97.1272743	104.965056	-203.60152
-64.3788922	-802.124038	-191.029194
87.8100133	413.670505	188.141913
67.3325086	873.385382	17.9795265
-81.5964866	565.446348	-54.1194212
35.9254575	-785.150659	-10.182786
68.8984656	-571.214441	162.641859
2.83115387	-336.331679	-194.608112
106.944482	429.41128	6.2768364
-203.458883	624.338703	39.3940616
149.437151	594.382006	4.56857681
-184.767369	800.05983	-113.644325
77.4988508	-730.124884	-160.779128
76.0523534	294.051509	-18.0620074
-157.158819	480.413648	-94.5747066
85.5023837	278.691051	-211.331381
-190.564043	-409.738809	-141.831054
175.627396	-246.710198	-115.184463
-109.330003	-747.556763	104.938872
50.6047773	164.71217	87.5632787
-194.232092	132.998545	53.3557582
153.035836	223.898002	83.97789
-43.3879471	81.066488	47.5170016
-198.654944	376.46755	-93.6000025
-8.49816918	-966.066244	41.4583135
134.048548	-210.986131	22.6272798
43.9641333	-309.882709	9.28648472
142.70663	806.231048	6.31037951
217.181408	516.012311	-54.7806978
185.745273	209.058124	-205.064799
92.1267676	901.613944	126.278033
-130.231275	-961.337909	175.806153
164.787202	225.157708	140.835638
174.213288	620.013335	35.0067854
-192.801103	-870.199215	84.1007328
206.882336	16.938386	67.8868747
-34.3412209	844.564894	-26.9526494
193.456752	256.981878	-89.3431616
202.945204	333.844066	-27.6466691
-39.9082363	-963.345533	190.530162
25.7641506	44.6194255	-168.632222
113.840516	431.289276	-128.932981
58.3874345	-541.086289	22.9156876
96.1258984	233.172926	-24.0576613
-170.635279	780.980152	-89.3915486
57.4779415	-172.795669	201.295271
-57.685796	257.159953	-166.475379
57.389586	740.608042	5.42123795
130.607376	523.098996	-134.332976
155.798094	156.17672	141.621554
214.427989	-273.580303	10.2864051
-105.449388	-918.278077	105.242989
-148.965567	-733.842514	-41.930474
160.804777	732.315537	-157.060262
72.965889	-102.560121	123.585143
136.959062	-597.454548	34.1887689
-7.21803665	667.831401	135.633965
-22.2831547	948.454564	-140.313097
173.896635	-175.255184	-134.643348
-203.50371	786.670337	-17.0603037
59.6873808	894.418795	-160.033981
-175.173879	-254.997558	-53.9369011
-168.310353	846.608361	204.071376
-191.362704	411.845469	-218.586677
203.143394	845.736604	189.800081
215.451643	228.071775	-175.706409
105.404489	-856.941753	216.515031
86.9851518	90.1886606	48.9039397
-148.925979	-886.135497	159.768507
-151.773544	962.328328	-211.228589
110.399265	-789.074607	-192.56329
102.1822	-336.892557	-122.610144
44.1792393	556.12124	216.310022
16.5111041	-44.8979855	36.537652
132.97627	515.02839	82.2835827
-88.3397925	254.298383	-208.059952
-197.427349	-719.330817	-10.916394
-36.6892517	-425.697321	-216.540746
45.29778	-145.193029	-160.316422
155.088339	711.255528	162.310231
-116.726134	-628.277973	-213.443978
-196.147351	85.6317949	-121.45943
-102.147332	-428.671923	12.6470637
33.4592915	217.565938	-104.813852
-209.671851	634.846044	-139.91631
-176.844517	199.683987	-106.896384
143.612084	-656.940795	-69.4567263
-53.7480211	488.38585	193.426697
-22.1831417	-505.154834	212.451594
193.567243	-80.3135437	93.0149388
-108.413888	-462.84379	-176.847009
61.2304688	790.243397	207.333319
202.741637	-159.973819	-161.743617
143.088822	-645.023425	-171.321253
-92.1812129	159.61102	74.1000605
-89.5893192	95.5538011	177.958498
-58.6023831	781.026289	-86.9908953
142.280772	-688.246582	151.690047
190.666091	89.1446102	-194.674755
-182.019224	-569.19147	146.425483
-1.47724748	-699.412915	144.437261
-13.8810253	432.16959	-20.0477123
116.505737	-162.040701	213.652589
45.9222221	260.686644	26.0809612
-204.762967	774.260371	55.629189
-119.277443	-214.586191	136.942434
-52.0561922	717.92443	-35.659591
141.241801	699.124122	53.5641503
211.310709	259.376869	-205.523591
88.5344028	397.994138	156.855896
-202.998938	56.6297638	-158.303678
4.58077192	71.7102742	87.5914717
144.928002	-77.6439822	-4.62822795
163.065436	-190.261573	149.201169
105.66793	658.371233	187.897723
21.8008447	112.187263	144.31392
97.8793192	594.261748	-174.878144
107.573252	660.636021	23.8061404
13.7775373	-396.433381	147.186038
146.233718	-297.659664	219.016235
214.364522	198.081776	210.752251
-2.70579338	-552.555002	54.9376082
64.4870615	-711.125614	47.5997448
-219.107412	-808.115476	-108.185945
167.355125	583.497008	201.778984
143.771958	-937.1133	-64.4098914
165.42536	12.2049487	144.567053
-104.61738	968.017703	-207.190862
-61.4536786	112.454144	166.866901
-130.993574	470.809979	54.3059015
-154.280157	-829.747782	-35.8780146
43.5100555	-29.5418638	71.1040759
-41.0094023	544.449822	-104.003035
98.5979915	-435.678242	46.6444612
-103.736067	-787.303225	-165.918967
61.6115332	-386.510913	207.047927
74.9077177	-470.195217	-70.602634
-164.80655	-619.299706	-188.519152
-126.921837	-882.027388	217.705956
-104.158778	417.63984	-60.4036009
12.577014	-801.656086	56.0544968
173.313289	299.18758	219.828115
-82.8876734	-46.7538953	-8.04194093
-2.07282782	812.40562	185.38991
162.25117	917.543316	153.964841
-141.51682	-236.569645	-50.8828783
180.676172	-795.903734	-126.476276
174.765635	108.691908	-216.852935
0.822553635	465.038158	208.037331
216.402338	318.622136	38.5697246
-156.600388	-376.050693	-28.0666268
171.441562	958.209596	204.835918
-149.902598	-592.244992	129.593163
-58.3670044	-35.4933214	-103.001738
18.6999297	-925.874537	-82.6097822
150.523591	-418.082656	168.671358
210.817606	-463.53331	-12.6209164
-173.599871	352.390329	-44.5934796
33.315258	891.476398	79.0164733
-197.19378	603.446709	-195.596563
-7.11369634	-24.0954334	28.1971669
-58.5890865	-289.662138	85.1796722
-145.229038	-32.656728	29.8001289
9.80130196	680.802302	19.6099734
202.948456	-646.966927	41.6149879
-188.613717	-771.045441	-152.729221
140.19289	91.460855	62.2596049
176.985879	-14.2740858	214.963918
-67.0390391	-634.111947	98.6810231
190.608735	835.661731	44.5896769
1.41193151	395.796648	-4.01712179
