1904

148.978	-534.588	-164.335
177.22	-664.391	-33.7062
172.13	-843.452	19.6948
-192.497	854.055	-9.58054
-119.573	-557.625	193.177
176.792	-845.229	138.762
-121.187	470.469	15.5339
10.5167	-776.778	-188.325
29.5243	968.258	-19.2014
211.287	-667.124	-42.4746
-197.776	205.796	101.915
42.2921	465.632	-17.5871
92.8391	899.936	-34.9712
-104.372	474.643	82.6575
-81.2367	768.198	-40.1562
-141.922	-313.419	155.151
79.6021	51.4614	-110.412
-46.939	414.555	-130.726
-42.91	-877.682	201.825
147.055	772.1	177.23
-156.023	354.966	-55.5032
-49.0565	139.231	-217.378
-212.572	-615.742	67.6417
-185.803	84.4681	-215.841
190.108	39.734	-105.782
123.274	80.602	-121.016
-179.616	253.301	-53.0564
68.6205	165.138	126.379
-73.1303	892.425	-40.8586
-174.769	-327.482	-95.6967
144.888	-340.511	-65.4497
209.04	-739.065	138.957
144.682	108.652	190.684
-104.995	366.699	218.1
-149.283	852.82	-33.3936
-203.151	-939.593	-111.612
94.8541	-437.026	-133.133
-95.46	-823.555	-156.151
-108.433	874.539	207.358
120.909	-265.896	-49.6962
-167.179	-242.478	130.03
155.16	749.581	138.992
-125.316	619.276	86.2459
-2.52162	412.64	-101.97
-2.07146	-334.109	208.871
57.0779	-100.607	175.119
-174.925	-322.166	-6.66037
214.538	-796.64	-195.478
-101.64	716.748	42.9019
23.2109	-943.267	183.186
31.157	430.17	185.712
217.306	913.903	126.607
-218.814	267.638	-8.36274
-120.302	884.28	-56.8133
-20.5451	577.341	167.75
169.895	-724.176	-189.097
-141.956	-244.406	-39.0839
-153.085	-764.716	115.083
76.9169	-792.143	-19.1554
40.2952	719.296	130.181
134.275	898.944	197.468
-55.7425	-32.4479	-138.062
-104.156	-751.889	-4.50755
-14.861	707.256	-70.6426
43.8492	-630.32	151.523
-143.037	-706.632	51.0421
-155.621	-746.757	-92.3805
108.238	-878.696	-176.288
-193.754	-353.576	140.68
98.9931	-630.143	-186.539
11.3878	-429.226	-205.698
13.7358	321.095	-37.5581
-48.0626	521.561	-4.90335
-26.6731	308.848	-108.785
-192.406	-136.433	-141.747
61.1646	-684.254	-103.772
79.4016	-366.748	-155.289
107.321	-356.161	-46.9834
-180.2	359.695	-201.871
153.751	-342.228	129.645
-77.8906	186.644	72.5026
-194.802	21.2274	67.7918
68.5525	-827.952	-14.2376
205.098	-473.737	-54.7463
-15.9472	-45.6205	-15.1365
-214.839	118.413	52.2011
-151.758	-191.149	111.856
-105.892	-686.879	15.2498
33.2827	-504.329	-90.4375
-64.6906	-908.423	-154.207
-108.253	959.294	-122.467
-54.0281	-952.088	-87.2807
145.535	-116.842	-38.908
-177.38	636.975	173.157
171.125	924.707	93.3928
-218.708	-533.324	-14.1464
170.784	736.041	-148.31
-26.667	-100.692	-166.245
134.76	899.53	-215.022
-195.855	504.017	-93.4263
-156.021	-550.424	-27.6905
-212.283	-521.106	-105.818
-86.0212	352.048	113.347
-218.148	-579.993	102.433
-10.307	554.617	-42.0906
199.547	730.724	-51.3634
-183.251	720.611	-85.4809
-21.5532	-428.035	189.551
-206.566	-258.3	-204.277
66.4246	205.075	-48.2491
-75.228	85.3662	-112.304
202.534	647.187	190.379
-145.294	127.172	-64.6772
60.8419	138.618	-4.21113
187.038	-491.626	-208.735
-215.991	-89.9559	100.181
101.367	-493.564	-169.854
-160.732	482.663	-51.7855
164.299	441.903	67.2421
180.076	-673.106	-218.851
214.981	-838.363	44.4851
-42.3809	957.938	119.627
34.3505	919.004	-104.569
-128.341	234.868	-23.3357
-96.2322	-758.226	-109.522
-10.3684	-338.602	15.7144
-105.135	804.315	-65.7275
66.048	774.184	-34.4599
-67.4516	-49.3035	66.0859
146.2	-6.03153	-27.1245
198.383	-447.329	158.565
112.355	32.4389	-30.7733
3.34744	-821.625	215.038
-68.5125	-364.381	-124.454
13.723	-500.285	-39.3698
-141.214	-807.668	-44.8251
212.423	901.791	-150.284
-219.588	-913.149	-127.724
-92.9418	357.402	-72.2209
-67.4599	-814.498	34.451
-34.0171	-264.458	197.308
61.5233	903.595	-186.524
207.779	-56.3102	-174.566
-169.72	-595.542	-11.8029
126.255	-179.409	-131.409
69.0291	-477.107	-117.069
-195.766	-629.916	149.922
54.5728	373.697	-128.661
135.394	-256.984	211.284
179.349	711.181	-185.255
191.984	-512.178	137.589
-126.513	645.696	193.706
217.674	145.347	86.3726
2.50619	-758.924	-147.409
-50.2728	182.819	198.235
-185.737	-299.802	92.1353
-20.0863	688.218	102.581
-208.42	512.564	-186.34
201.512	560.777	-32.9223
-154.622	289.909	-60.4597
133.87	-29.7935	-42.8071
201.059	-402.384	153.228
-67.8953	-694.917	148.454
-132.613	549.452	-152.788
-198.726	-490.356	-177.553
-49.8632	109.886	189.876
-53.5074	-883.496	152.871
7.18061	863.609	-4.64934
172.052	600.781	154.039
178.467	100.979	-33.7885
35.1355	-507.624	134.436
143.849	207.296	-112.613
-87.2645	-641.164	-84.0245
1.08909	622.289	-167.268
59.0441	-222.624	101.136
203.69	279.701	-73.2555
-95.6185	-660.817	-8.15077
16.7186	-774.699	217.888
-122.676	-72.7343	-67.8837
34.2932	-603.443	85.6439
54.7336	-502.933	112.041
77.184	-411.353	158.118
-150.472	389.325	36.2624
-58.9722	-140.491	31.4284
-61.6008	-24.0874	217.629
-117.658	-103.762	-122.784
-32.1916	622.749	187.459
82.9975	909.096	-163.762
177.437	-333.654	170.057
-137.348	-933.256	204.633
-54.969	-849.361	-195.148
65.2432	-129.598	-174.163
169.921	775.085	-36.4186
-95.7584	31.3236	-175.268
94.3288	193.945	-69.2786
-55.506	666.765	-36.5377
-187.46	429.246	180.33
184.476	-942.852	193.103
-136.662	679.489	186.086
-135.734	565.904	-63.1607
-172.199	939.77	139.392
-98.7199	-284.699	-37.0072
54.6271	-586.154	-128.264
-146.438	635.024	-173.201
151.452	-663.349	215.139
60.9357	-484.8	-8.80803
8.5718	-69.7781	-82.446
170.756	-284.455	56.2343
-153.002	0.772775	-177.805
-16.8692	352.76	-201.698
184.037	-782.513	-194.298
-149.995	-363.567	24.3314
99.1341	194.479	190.552
139.553	784.145	133.017
-144.384	521.78	-209.367
175.621	-645.806	-152.108
-33.0243	-548.349	-119.181
177.592	233.192	-107.836
69.6411	681.409	-1.34355
-94.1188	446.19	-128.469
-162.157	-58.9764	55.176
99.1119	-250.589	20.2891
-139.998	473.776	198.958
-204.998	-336.186	198.324
-62.2694	-489.807	38.207
185.245	-529.056	-88.3392
59.0122	888.877	142.77
-213.327	-427.635	168.47
163.912	425.787	-196.246
-208.546	434.233	96.7197
140.185	501.376	39.3303
-33.0632	-25.1867	201.062
176.857	-736.71	218.65
181.127	841.971	127.487
-27.0643	-362.988	-88.7357
210.164	78.7435	173.286
-46.9292	934.524	2.50941
79.0554	-893.148	215.852
-43.3222	423.4	-188.911
131.455	-909.324	155.206
-95.3423	-419.673	-9.42239
-97.4718	473.072	-144.29
-31.0193	-756.874	-129.922
152.129	853.957	157.489
-77.104	-563.355	-99.9626
206.929	-907.922	-62.1872
-0.100013	-817.13	75.2674
92.5962	-558.613	86.1297
-184.578	889.096	-176.117
-86.2676	167.322	210.341
36.9682	-281.55	-196.684
-109.025	-78.9016	70.3247
-179.55	952.744	-79.8742
-191.76	-6.99672	54.544
176.744	542.872	82.3759
99.1302	809.13	-216.068
97.6408	-345.073	-10.6324
195.991	-152.545	-15.6144
-87.3759	-524.637	176.8
-215.735	541.737	110.34
169.276	141.088	-141.418
-211.484	694.765	-110.572
99.1197	560.814	160.206
15.3105	-416.906	219.428
66.2135	-432.245	-62.3911
176.356	14.1538	92.2676
-119.527	-129.765	-158.669
-97.2144	576.151	-122.937
-163.364	-872.034	-190.675
-58.0075	832.74	184.629
-150.546	-66.6903	27.1126
90.7312	273.994	169.704
-218.821	-895.141	-62.982
-218.986	-430.053	95.6162
98.3811	455.814	-216.04
-109.483	343.425	177.612
-215.439	-91.1721	138.994
20.3243	-722.41	-166.153
123.089	255.304	61.6539
-32.1493	887.527	84.7093
141.216	755.623	-139.426
116.046	832.113	55.0092
100.012	130.765	-30.6005
86.1331	653.154	207.266
-25.9129	930.4	70.1233
-206.623	-240.921	39.3945
73.422	-388.054	-210.861
-176.004	-607.438	-159.757
159.673	-682.474	181.167
104.63	-667.427	-211.117
197.86	404.026	-197.441
-47.473	80.0294	-55.0455
-24.3058	949.287	23.216
65.5954	609.42	-116.708
-150.079	-657.431	109.945
-42.4061	-8.87073	47.6671
-187.779	245.07	205.047
-208.837	242.723	47.3006
-216.058	410.309	114.549
88.5069	51.082	136.039
107.761	688.156	-157.16
143.865	-201.987	145.794
45.9679	-874.465	217.793
-149.003	-713.536	-119.053
-98.5986	-201.333	-57.0151
110.283	-884.043	11.1379
-44.1165	-907.291	-77.7468
-149.414	-735.043	107.819
204.085	654.61	67.9148
-107.409	-876.59	153.451
-163.267	542.729	-60.8721
-153.064	582.458	-206.723
124.384	-632.179	198.129
-74.2781	926.94	194.9
68.454	-268.665	179.041
-43.4807	635.325	-195.329
82.716	-852.912	-168.304
60.7898	-353.366	-120.747
-51.8733	66.81	136.699
44.2887	-400.555	137.822
126.59	-529.543	4.676
164.554	616.981	-169.08
-203.99	-285.776	-153.561
205.861	-358.667	-120.733
-74.6518	-515.868	68.3155
19.1193	-246.278	125.351
52.9191	767.669	172.206
12.3511	-817.785	-84.3597
-215.424	344.82	-170.866
124.023	295.025	-58.5182
188.732	-801.739	-24.6188
-95.805	-255.76	-143.206
197.14	814.17	-64.5865
48.284	584.762	63.4278
-126.343	-588.699	-58.931
-94.3808	-384.207	49.5608
2.24799	441.445	-86.4179
48.9098	468.101	206.275
160.058	676.732	49.8608
101.993	421.296	-202.379
196.186	-943.91	14.3271
71.9452	-377.754	99.6751
-215.583	-444.577	-179.838
149.115	512.237	-210.392
-63.0029	-549.757	164.653
-64.5035	-339.487	93.299
190.155	-245.087	-217.81
-107.595	-311.799	67.0346
-89.9839	895.729	45.5702
107.709	884.653	-153.164
-45.0234	461.694	167.577
193.326	100.397	-124.735
87.0224	-687.217	30.896
-176.697	-33.2514	207.38
-186.127	708.159	-155.688
128.012	-210.92	180.471
203.323	-818.549	-71.7968
9.32926	-168.471	147.253
-71.447	49.485	176.333
5.61445	776.462	-88.0034
181.752	-600.877	-29.1146
157.505	-365.631	-10.7228
-140.949	-267.344	215.924
-135.107	769.42	190.553
-128.253	-130.455	-91.7903
42.3998	-573.557	20.774
-207.024	-681.255	-5.33301
60.4535	511.14	-64.777
-26.2774	-503.966	133.292
182.897	-152.974	-211.611
107.478	-187.626	-5.77615
207.573	492.961	179.687
-199.853	-39.1037	114.052
1.00747	-525.578	-183.37
-128.874	462.884	126.085
23.6391	-924.906	-179.961
-134.341	483.367	-174.939
-112.023	300.128	-175.259
-171.84	-152.668	53.4813
66.6522	-723.536	218.246
-198.775	791.678	-9.73483
-162.144	579.893	-120.925
44.5606	-555.367	217.295
-67.492	-482.772	198.767
130.927	-17.3323	58.3773
197.716	-113.606	-86.0593
142.563	-74.0044	107.939
-56.8743	-239.134	75.3068
-48.7028	-654.602	-205.214
-18.2356	318.542	-35.8809
160.443	-198.227	189.862
194.884	-635.742	71.2637
-198.722	-355.015	-49.2083
46.8479	-345.093	105.189
-152.635	-229.126	-13.5833
-140.629	499.482	127.351
212.311	690.222	115.926
19.3905	551.697	-149.601
103.736	783.52	-112.057
112.831	-249.508	-136.352
19.0419	-485.217	-121.386
90.8177	807.931	164.332
-9.91018	729.361	-8.24543
-143.178	-604.749	218.607
140.87	-154.587	87.9529
28.7957	429.271	-142.327
-174.809	-526.182	13.7198
132.346	-103.397	56.1728
-9.8255	-825.968	-19.2885
189.435	883.51	112.3
200.142	138.21	-195.112
77.5196	-282.838	76.0908
201.901	-380.038	-175.177
132.264	-734.766	97.0322
11.626	715.921	193.553
-55.4683	906.652	-65.0026
190.02	-963.704	-61.2839
37.4992	78.7141	-132.571
52.1333	-112.039	-151.584
-200.219	-748.483	115.609
24.8411	-109.624	199.733
-114.036	-636.017	0.516155
-197.703	-184.781	95.3323
40.9393	931.553	-26.0662
-34.622	925.673	39.5101
-160.542	-279.489	108.085
-210.953	192.282	145.453
40.5939	790.918	122.802
58.9879	571.632	214.507
-58.2798	-99.0127	51.8029
-160.291	-732.339	75.2174
-56.3395	355.545	-17.6601
101.506	413.639	81.4579
187.058	682.456	-141.759
-202.331	-143.484	-37.8429
136.781	-542.907	-91.6865
-73.1668	807.162	-7.00317
108.832	377.091	-114.757
107.044	-190.875	-194.625
193.013	-385.098	-64.335
-181.872	-22.8921	-8.6942
-100.975	-665.851	202.859
-153.589	-252.056	-168.726
-216.594	-357.679	-194.596
21.6471	649.809	-189.989
-157.371	587.967	-75.9406
-199.49	-158.382	211.764
-148.089	431.544	-105.489
31.2661	47.02	-144.757
-180.346	670.413	-1.78902
95.8436	-594.656	128.846
145.329	-99.7835	214.574
180.587	468.059	-112.667
203.981	-448.503	188.484
4.89457	202.43	-157.41
-141.481	221.521	38.1618
-105.972	416.197	10.5101
-141.088	-936.946	123.524
-17.2182	524.353	31.9803
216.268	641.73	-184.82
31.9549	505.604	-126.982
-116.612	433.168	-213.017
-10.5294	366.949	-107.182
-133.927	76.8599	129.909
-177.092	-402.957	-98.3036
-106.492	-257.03	-21.3278
103.475	-509.998	-58.1517
173.687	-389.215	-41.3046
-54.714	-403.192	114.437
100.897	-31.1269	113.459
19.4605	-791.452	7.79483
129.462	537.648	189.843
143.736	656.511	5.28329
-171.518	-249.556	58.553
-142.856	617.76	-83.8572
-120.818	-4.71719	-149.343
-67.6152	277.964	50.3048
191.121	581.122	203.641
29.1918	-830.573	155.941
-147.898	-270.883	48.1367
-11.7876	784.335	-166.51
-157.323	-911.502	-196.861
90.9293	275.037	-125.584
146.834	744.836	-98.9968
106.587	803.474	102.59
-51.1428	320.123	155.112
132.274	-71.5743	60.5178
39.7659	-748.978	70.2126
-157.36	159.016	194.343
-160.57	-558.792	73.1985
-15.7601	-130.011	204.134
-5.86005	-957.509	-194.43
51.5681	656.097	27.9306
21.1939	-216.386	92.9019
197.252	-785.321	196.068
-198.834	-118.901	167.72
2.40262	117.934	-48.9786
-86.0653	-969.564	-192.448
-200.211	739.437	32.8885
-215.892	781.568	-153.056
184.799	-484.234	-77.5615
122.805	-503.861	148.246
183.142	-635.133	181.628
182.198	-8.19566	131.223
-204.875	-886.528	-215.627
112.647	-770.91	14.9267
132.178	-837.208	-163.204
-64.5674	-17.506	-68.3939
106.366	782.491	133.893
-106.139	507.816	146.682
-51.9621	-918.391	-23.7361
202.901	115.335	-153.522
-77.4872	949.717	-172.328
79.6096	-279.714	138.688
-66.3476	-63.8572	199.25
205.147	-470.116	40.3343
-141.324	-3.76276	176.671
-38.8362	-179.745	210.231
186.419	373.672	215.801
-167.17	-879.731	-61.8898
16.0008	324.468	-97.1929
168.178	103.248	62.7336
15.6577	721.842	155.825
-205.639	197.114	-99.6266
52.1293	602.865	-84.1831
-204.585	-521.699	97.69
111.905	50.7657	210.12
85.5051	374.165	-157.412
40.9907	688.436	17.5071
-142.612	772.188	-56.5905
-215.405	-164.441	147.643
-111.444	160.98	82.6518
103.801	-716.127	-17.3783
48.3371	-16.5066	-187.652
45.7591	-788.735	183.052
-217.595	566.422	213.861
-29.8279	278.634	152.968
-185.874	623.16	-37.2764
145.783	303.58	124.477
-48.4539	-846.373	141.095
-178.478	94.4629	-10.5243
-27.5441	73.8162	49.1491
-179.815	947.166	36.8463
42.3728	-457.954	-0.28214
72.6692	-417.252	-185.864
-189.313	-182.405	-17.0825
178.715	-965.535	138.42
-201.915	-765.816	213.628
-145.325	605.656	195.445
-34.038	-152.582	74.9059
-45.5112	-676.57	116.398
170.764	634.229	87.2911
147.853	-274.395	77.2899
8.72433	331.309	125.373
2.30404	-65.1599	31.596
-198.829	619.775	54.1848
2.55552	-919.715	-91.3525
-36.5672	-661.134	5.34078
14.5241	-218.916	-98.4431
-68.1461	-512.352	-194.598
-155.354	140.441	49.7061
196.511	17.3339	17.4362
-212.177	-414.153	-202.446
68.1747	963.936	-88.25
-27.7155	543.616	124.335
-89.6581	-709.949	56.3571
34.8204	559.419	-98.0905
145.903	-0.660033	-91.449
-62.698	64.621	56.8145
-30.4173	552.618	-123.701
81.8659	829.69	-7.55541
190.022	831.039	-21.8918
189.121	-418.94	-17.9142
-197.006	61.204	-24.5454
135.325	388.593	-72.3561
199.403	-552.809	-149.526
-48.203	226.565	-114.341
11.1711	-780.569	-110.821
-208.027	260.778	-161.01
-179.144	-306.619	195.953
-126.585	-696.152	-153.841
218.637	389.269	162.176
-108.397	-449.237	-176.676
156.151	812.879	164.953
-118.851	-760.509	-180.362
-48.9547	786.204	108.661
-77.0634	956.36	177.716
113.826	315.322	100.244
119.364	40.2332	-144.503
83.9161	175.296	92.0968
-100.988	770.034	77.5182
-194.858	684.324	-182.134
-58.443	-501.888	110.777
188.318	125.235	-219.88
-135.37	340.817	59.0071
-156.824	-615.988	27.7303
-209.745	-912.078	-197.491
-101.067	678.021	-16.5313
-162.584	744.101	-14.2382
-51.4976	668.668	119.56
-141.629	348.122	-194.456
-49.3866	787.953	9.34096
0.292053	-348.249	-112.925
-41.3177	18.6812	-9.25783
166.602	-304.405	163.679
54.3212	930.357	161.453
96.7518	747.78	-69.6543
-77.1448	242.372	-198.554
-88.8897	868.743	-95.5699
1.20131	-892.676	-130.42
106.792	638.576	-19.3095
-100.632	538.108	138.072
-214.285	924.919	-145.219
105.863	305.023	-205.502
-78.8129	-899.761	202.311
160.626	-963.682	-195.422
198.652	-591.102	136.764
177.581	546.592	42.5672
40.8549	-686.883	-144.669
-7.79826	516.39	-191.333
-48.0876	156.004	-12.4735
-206.126	874.49	-215.461
-97.7208	555.3	-19.1487
207.375	-215.671	-189.097
139.801	123.344	6.8093
192.771	-537.125	-59.0283
-146.647	851.953	126.61
-117.901	406.658	-88.2399
59.4847	471.903	102.582
215.57	333.407	138.113
117.919	-764.453	54.0243
-87.5596	622.304	-218.059
-0.428901	-10.2174	45.0371
200.351	-786.937	-74.7797
-5.19691	614.755	-44.0627
-196.253	-924.802	96.9574
0.952137	-850.198	-95.8941
82.6541	-21.8136	-33.1731
136.112	720.573	89.3843
-60.6994	936.141	158.926
150.345	608.247	127.701
195.8	-799.134	122.856
162.367	-2.955	200.47
-1.75475	316.441	-65
-172.246	220.348	-82.3276
-87.5074	96.2971	143.367
-53.0336	818.475	-178.405
-70.4166	-601.976	-63.2949
192.959	-882.104	-10.4065
192.974	-15.855	64.1717
-86.0429	551.472	104.649
88.9741	-20.5716	-96.9321
60.0555	31.5625	181.83
-55.8749	-963.82	-6.86417
-108.634	-915.544	-80.8013
116.258	679.473	-122.253
-201.303	-258.836	-52.3378
-171.806	849.96	28.2218
-38.5977	-46.3693	-188.185
-129.009	768.813	118.567
61.7481	531.243	-24.706
-150.878	-169.707	199.852
130.137	-585	-35.2675
201.229	543.101	136.077
46.0464	-894.432	-81.7526
-218.847	-184.72	208.524
-216.09	-96.0791	-67.7052
-191.497	174.403	-30.2324
-126.773	-255.461	-124.455
96.8439	904.065	134.108
-161.315	-315.875	111.765
-65.4619	417.511	39.924
-74.562	-945.956	198.506
149.533	-255.373	152.756
-77.6249	-768.848	-59.8761
169.118	-845.116	73.8072
30.0535	404.357	-31.3956
-93.4819	620.411	175.469
-126.379	392.364	-54.999
-3.68201	-184.372	-49.1855
122.129	547.679	99.0606
53.6831	188.079	-13.0443
218.812	-828.903	-11.4886
45.0932	422.422	119.873
121.375	-710.433	145.703
140.038	685.208	-27.7539
49.8545	-860.552	-1.01242
146.322	-756.824	-139.284
21.4453	385.237	-153.71
33.2369	-759.416	-107.003
184.496	460.643	109.595
156.561	314.343	-154.056
-100.488	594.989	159.066
55.9994	-75.6956	35.8846
-65.2499	467.292	-74.05
144.404	-964.108	126.928
-178.241	-554.761	-81.2147
29.1292	279.974	-175.372
120.654	142.622	-198.589
-95.326	463.461	208.85
52.1386	-925.062	-23.3757
-59.2562	-462.466	-162.16
-101.072	121.699	-196.606
47.4622	-54.1009	90.2211
37.9492	688.83	-170.888
-51.5527	-158.026	191.887
75.6551	-363.041	-82.1633
-11.6654	-341.071	-219.808
102.519	-381.784	-21.9923
-60.5834	323.374	203.959
-178.463	788.991	-65.1393
-85.6468	61.5887	202.404
-190.165	879.18	-124.313
-199.252	960.555	61.7997
106.44	856.067	-139.391
211.389	-541.453	113.572
207.221	672.351	-68.2366
-196	-596.565	210.128
-152.546	-300.898	83.9541
116.373	542.241	35.1556
-121.416	-299.114	-85.0041
169.578	-933.761	-42.5992
87.8029	712.15	15.291
201.019	-898.613	194.349
174.31	-393.288	-167.564
193.981	-160.696	29.388
158.501	-680.674	58.9408
129.139	787.272	-92.0264
-138.163	-550.133	107.096
201.492	24.0882	143.445
34.6597	-774.041	-214.162
-180.381	873.182	-35.0039
-211.829	382.395	-202.675
-184.074	-310.914	-67.9591
216.428	291.725	166.589
46.0427	226.283	-109.287
78.7731	112.886	98.6119
163.006	950.345	-46.2634
-45.4885	-735.051	-22.8158
182.995	831.859	-90.5724
-156.486	-322.974	-62.2413
-209.91	-533.025	43.5205
219.233	96.9158	-3.5818
34.3596	252.912	13.82
-190.999	134.246	165.734
-69.0006	612.192	-31.2113
41.4913	35.6574	-84.9448
54.5705	-752.683	-85.1109
-207.428	759.659	-68.3916
127.307	440.95	80.7339
-103.159	426.669	85.1374
108.109	387.141	-18.7967
-192.393	-361.172	-89.3422
5.79063	-930.976	-62.3696
160.796	-149.794	-37.6098
-81.1462	72.5247	83.2808
55.5542	204.627	136.675
-8.95543	-147.859	-71.0098
-138.847	-337.86	81.9729
23.5534	733.961	-156.954
205.677	440.862	3.24956
-212.173	891.724	172.849
149.481	-475.927	-209.065
-174.646	-518.564	-137.759
-131.334	-395.05	-181.433
19.0997	-145.316	-30.3896
-184.622	-432.096	-211.18
170.098	674.439	143.911
-190.076	-126.042	106.963
-35.6202	-416.873	-115.065
153.274	552.909	104.709
-74.9062	-471.133	169.703
-60.1008	-412.497	-24.6548
-151.434	570.145	-35.1872
-194.02	-904.242	152.139
123.236	322.445	162.809
86.977	379.357	132.318
64.6197	275.18	-63.7425
-215.985	-330.833	82.5686
106.585	-40.2239	-114.495
170.586	232.835	197.322
-211.751	-246.678	85.4747
163.523	84.3203	126.007
13.3217	-404.36	143.757
-172.123	-968.865	8.02551
-166.019	-820.3	43.7015
-2.916	544.253	-179.786
53.7878	-829.095	-146.291
218.109	742.976	30.5681
71.951	562.193	115.067
-160.83	-745.368	46.6814
-162.931	-408.051	102.274
86.3964	582.288	-138.034
54.5205	-727.382	173.116
-80.6893	-731.255	-50.1699
-69.3333	588.271	0.204222
172.723	-415.401	78.1666
71.0565	-210.366	-198.745
190.385	-838.34	174.138
-159.614	-525.435	95.3625
-68.7459	-98.943	109.135
-156.967	-832.013	94.1662
-26.8643	851.007	195.319
93.9227	549.221	-36.9212
-28.5731	-353.7	-183.092
-20.2249	237.033	81.1288
192.765	803.527	92.2164
-104.177	-508.231	-28.0875
-68.1947	-379.614	127.636
-95.6755	447.739	-52.7616
53.2541	-865.263	113.18
-77.823	-644.148	164.126
-213.008	640.197	-146.147
-60.0655	549.489	-27.0634
30.27	305.76	69.1624
109.923	-391.772	-164.31
208.577	-745.353	-127.878
108.653	249.631	-173.227
-193.499	313.643	-175.437
85.6875	362.457	76.8163
5.36902	-593.913	53.6345
-35.2183	163.309	-154.499
108.082	-180.685	124.227
90.0038	-204.617	-125.004
-159.83	148.815	-33.737
28.3246	-947.713	106.283
-144.285	-197.6	-10.2101
217.554	276.565	2.49473
-156.999	115.845	122.464
179.561	-732.182	-138.568
31.5934	524.66	-195.844
-96.0716	-170.814	-183.916
211.873	5.45337	-108.494
107.773	22.0915	-107.668
206.446	615.434	-132.39
11.3976	-524.343	-140.142
107.534	790.767	-6.36072
203.87	323.151	38.4288
158.616	150.536	-173.51
167.053	279.686	27.422
84.8056	-900.419	-88.351
84.1273	553.908	-186.201
-121.653	-68.3884	132.981
30.4725	782.345	-2.6113
34.447	771.735	-66.7979
127.625	-352.874	-8.10938
-152.728	465.649	-115.778
-209.308	624.571	-0.112405
106.387	85.0802	16.6607
-34.9138	-324.961	124.371
-100.879	691.719	95.1044
111.41	673.53	96.9983
182.512	71.9509	-130.143
-70.946	98.7561	52.4911
-193.284	-6.97637	200.65
62.2481	-350.6	-199.74
-115.635	269.477	-216.776
-45.013	-683.458	203.476
-8.41553	-112.779	-197.013
70.37	-753.116	135.861
6.43629	-715.059	-192.531
-63.6646	-654.402	-22.4614
-78.9917	-312.588	198.921
-105.901	432.894	49.1328
131.108	848.764	216.548
-158.947	636.979	38.1992
216.124	-509.122	192.029
-186.022	185.581	207.826
166.844	76.6606	-190.04
137.483	522.055	-30.5933
207.674	592.787	24.3018
-170.02	429.249	50.9129
163.383	-448.631	-144.095
-119.189	-74.4824	-101.138
-44.4457	577.3	-96.2194
146.566	402.286	109.328
-179.754	954.169	-189.441
-113.346	906.054	-143.84
-12.2344	157.833	103.941
75.1845	90.8692	-159.943
-126.083	783.199	45.4056
144.156	722.124	-34.3715
-95.1216	-522.431	-119.16
-104.919	-85.1481	-215.69
-178.218	530.439	192.961
74.7406	-159.406	105.156
115.488	-75.5219	-64.5941
-79.2201	-340.503	-217.435
-62.7018	210.742	216.669
87.7738	826.408	-104.934
-201.604	755.649	6.87175
-129.732	515.462	4.31167
-105.293	420.627	-63.3978
-107.675	581.099	-82.6677
24.9229	444.434	-54.2337
154.861	259.747	-5.62081
-104.05	543.684	-140.754
-175.654	175.976	163.594
-109.94	-878.33	-19.8228
-212.803	705.325	-5.35694
80.1569	-189.517	-151.115
-131.081	177.233	193.491
-132.03	-204.217	166.4
-64.1127	495.93	-142.901
112.614	648.731	-126.743
-95.2604	-950.047	-100.08
-202.219	732.211	95.8568
47.6795	-110.765	-27.1401
-197.393	-742.855	-188.385
-11.7142	-757.962	76.4415
-53.3931	861.976	35.7444
32.2966	735.243	204.433
150.066	137.249	-98.8005
-0.650131	-956.561	155.196
53.4748	-692.008	-200.573
-169.991	-136.119	-64.2849
-31.845	-947.1	-124.534
157.86	-372.422	67.7358
179.904	669.323	-179.148
-31.7736	-134.16	16.077
119.439	535.68	150.858
123.969	-578.195	-134.233
-178.42	678.872	76.936
151.696	319.687	-185.799
20.5319	169.891	132.251
-168.874	-236.955	11.958
-2.80802	-551.401	-98.3374
143.123	-624.219	-189.329
-102.346	-439.805	-68.5785
42.908	139.517	-100.036
103.61	-867.449	72.2211
140.612	-41.2551	112.976
84.9611	501.186	-48.0769
180.096	-814.76	206.149
98.7904	-200.993	179.21
105.993	74.5738	109.93
-36.1753	201.57	-190.574
-108.97	-452.168	45.9996
-13.747	-572.767	-120.295
-181.582	37.2953	148.91
-114.232	60.2398	-169.372
34.5821	598.096	-209.837
-1.46483	211.548	114.13
-97.4928	-196.115	20.596
5.3579	216.301	177.119
45.8957	-290.109	199.793
-10.4025	-709.477	82.9011
-162.244	31.118	-202.503
164.874	842.107	5.42549
-208.257	813.665	-218.479
215.889	-325.869	13.0706
-156.649	880.28	96.8813
44.1932	32.9494	132.141
51.1746	-886.392	-32.7738
-119.676	-165.168	-71.7872
190.204	702.637	-116.532
-75.9822	-287.125	-116.667
-154.98	7.79632	63.7481
-194.212	-212.091	-187.612
-210.448	481.962	169.386
-188.012	930.908	163.685
-216.605	371.982	122.099
-168.836	-481.707	-53.3132
31.1788	-169.133	-187.792
-216.524	249.454	123.168
57.8534	647.576	161.918
215.768	-213.955	-157.225
23.1597	205.598	-57.8298
156.712	-856.964	-69.3892
-27.5552	322.073	177.208
118.146	61.1311	-97.0916
-176.428	-262.612	217.884
156.911	-620.258	-108.616
-171.786	767.323	200.295
196.418	509.032	-130.646
-191.824	415.183	-160.049
-60.4205	658.567	76.5252
38.3386	881.932	-131.634
-83.718	297.148	-201.374
-114.038	487.357	-50.4628
-121.448	103.812	-126.003
-150.594	392.822	-132.7
62.5527	-924.849	70.9308
173.445	-499.57	-8.75129
12.6487	344.525	199.817
-150.898	717.668	-45.0441
107.179	684.749	195.334
70.7989	306.575	-123.799
-116.541	-324.071	-64.9087
200.922	295.602	67.9774
-142.6	811.857	22.3115
189.081	877.949	40.0314
-206.074	-895.07	-155.679
12.451	-796.436	146.858
168.653	-57.9271	0.0953317
-30.5237	800.694	61.3847
-118.161	558.996	108.731
-212.122	248.997	87.0225
-83.4099	214.107	85.4169
-31.8031	712.09	-193.322
-206.255	-487.954	36.7208
-115.801	-849.907	-139.836
-23.5891	-178.968	173.71
193.489	-710.777	89.6154
63.0306	-656.812	46.2541
-208.458	-773.419	136.163
129.663	813.675	17.103
112.698	711.126	37.0165
-36.8847	-821.913	-163.166
148.333	664.411	181.547
34.2941	-656.677	197.998
76.2807	874.169	-34.0981
45.9063	-421.755	-106.615
-58.5462	-255.769	-131.085
155.865	-626.337	215.018
34.1031	-164.383	43.8411
-141.398	-352.609	-109.009
196.135	-532.669	-28.9715
29.2975	-634.475	-37.4638
27.5231	-733.757	-30.302
-114.378	-271.595	-61.7046
217.882	-386.294	-37.3849
23.3751	733.667	-53.831
-192.911	-819.604	70.606
-77.5608	-61.9174	-6.11323
62.6612	-196.017	-40.8403
-165.216	-16.0678	-55.8386
-174.976	759.201	-207.083
20.1629	158.659	213.242
13.4127	-14.6573	114.712
-101.593	410.47	168.093
-15.7827	153.667	-214.307
-172.562	-477.488	-215.184
37.7987	398.724	-120.553
-16.0789	658.278	161.797
-82.6301	36.2645	141.903
185.981	-366.761	20.7625
138.806	5.68845	35.9708
-175.756	454.946	-26.587
29.2614	-394.755	169.111
-151.745	-864.792	145.714
-0.647836	-562.801	148.395
-104.258	595.438	-174.186
-125.874	-865.161	-45.9762
-82.5266	-190.993	-203.701
-164.316	-823.93	-212.3
72.894	320.359	163.855
197.043	301.014	-144.585
18.1669	629.147	-113.864
-162.556	738.551	-182.213
-192.737	-897.653	192.471
-68.5629	-771.931	-186.406
6.93351	-610.589	-185.145
-80.4365	-242.424	-97.8327
203.972	-710.15	-165.737
-47.3882	61.0635	-101.85
138.969	358.407	9.17862
56.2815	-770.875	-189.118
149.722	-777.418	-68.41
32.1085	937.873	197.091
61.4004	690.315	-86.8039
27.1748	-963.369	41.578
-47.4879	-946.601	-211.867
151.943	326.143	-37.2151
-145.878	-907.615	-26.1957
-55.7997	935.316	-28.6657
82.6725	-55.7074	97.5921
169.264	108.053	-104.055
202.35	541.258	9.37418
-76.5012	39.2397	-150.303
-43.6111	-815.228	-46.9486
105.731	-650.846	138.77
-102.831	339.138	-7.93853
-149.877	883.226	-47.1093
38.2679	311.759	-15.6822
-212.012	-489.049	-40.9373
217.899	196.277	-176.713
152.875	284.173	95.7392
77.4696	320.022	-196.194
93.0957	-441.333	-164.371
5.93508	415.578	164.043
-21.9656	-334.531	-128.938
-189.411	492.437	14.3375
-87.235	-310.401	38.4824
1.89496	241.907	-205.102
-25.915	-355.393	205.244
-15.3995	-231.11	-161.289
180.901	-761.924	-115.485
-158.693	-690.154	14.2146
-106.486	109.473	-20.1685
89.1625	721.021	-94.0194
-65.2125	530.43	-171.267
43.5064	-834.334	185.039
98.7244	98.3984	-88.6592
-206.874	522.538	-59.5334
-116.124	-781.806	-18.2262
140.065	99.0202	-148.368
4.59924	-289.543	-154.266
168.498	783.763	79.9542
-180.012	296.724	78.843
-169.704	-579.334	93.2031
-114.507	745.658	35.4772
165.851	-789.679	136.49
-8.05423	891.228	-30.2297
207.567	570.513	0.369158
73.2079	-562.714	-171.305
82.7846	-877.897	-129.211
-30.4307	742.688	47.492
-96.145	918.839	156.417
184.172	130.98	115.08
-195.674	-381.557	-111.738
-90.8809	-800.116	-31.9499
-143.159	470.2	81.3764
-103.599	344.042	-191.88
64.5685	-860.821	-102.984
25.5828	-163.033	-82.3886
26.188	236.225	199.664
-126.1	-479.916	5.12856
12.0034	17.1513	-218.059
129.43	515.415	88.9171
-161.562	257.151	-28.5999
-87.9693	547.008	178.427
215.722	-479.525	-168.133
-39.6965	-320.392	-219.849
-138.762	-332.358	-23.6434
60.689	-753.649	-55.4597
-74.6581	-730.516	205.353
-15.6175	478.2	-77.0697
33.2085	287.443	-143.609
55.7003	933.026	110.705
-54.4779	214.355	3.37243
-55.388	948.94	70.8723
-169.957	-393.409	18.7606
-159.048	493.87	-23.2567
-103.3	582.971	-213.507
102.837	603.07	-113.076
51.6498	-177.736	-129.487
-51.0373	-148.244	-96.2037
215.385	-38.6155	-28.6364
75.3156	508.112	-207.51
-13.6105	948.112	108.234
-31.5215	334.913	-182.472
-181.699	-550.365	-145.665
120.968	208.437	156.651
-54.762	-94.8695	-136.634
166.94	-238.434	12.2017
-39.3818	-179.761	5.78817
25.6725	-671.001	157.988
148.482	-594.684	-153.802
-38.537	183.446	-217.599
-153.745	-902.307	144.808
-133.452	817.87	-201.968
97.2811	791.959	216.696
60.6949	473.164	29.5068
-22.9463	-965.188	-27.4154
117.48	-95.1353	170.49
-143.686	-435.245	-140.582
-133.429	-503.003	113.378
197.575	357.571	165.8
-88.4375	730.243	-61.1185
80.9833	-514.479	-2.77506
-188.729	98.6625	57.9114
-162.779	-860.121	-87.9488
-68.5022	-1.89216	162.903
-65.065	-575.644	82.9929
207.042	893.408	214.565
14.0915	346.32	94.6052
116.376	-1.77057	-15.2758
219.426	310.145	-70.7448
-41.4477	424.739	207.813
-33.7629	-967.637	135.031
-164.695	-8.81118	-102.984
-6.09307	668.312	45.726
-172.165	-2.36412	90.9013
206.776	-865.482	-182.543
123.023	-633.636	27.1545
185.619	-661.454	-89.7806
-168.666	-24.6119	-141.501
217.788	548.729	-109.177
173.633	192.264	-35.1146
67.2655	728.996	71.7741
146.929	-616.862	93.9848
-118.541	-293.37	2.68235
-171.306	-336.221	71.9667
-0.591961	386.503	154.382
-22.0733	627.202	-139.31
79.0446	111.18	171.618
194.624	-386.827	-130.008
-140.884	243.056	-96.5378
209.515	-643.107	114.252
-74.3784	-618.457	-153.545
23.6939	-723.628	182.813
-179.131	430.017	-78.2569
62.0828	816.648	40.5625
33.5323	163.937	98.478
173.355	-155.729	-103.915
-123.145	-88.9018	178.818
111.053	-104.537	-114.524
157.831	479.869	99.2075
216.823	356.125	194.994
34.2751	445.711	146.139
-118.197	-93.5836	-187.67
-160.229	705.187	77.5382
-200.011	-662.404	17.4407
161.565	963.226	-153.002
-135.355	-175.437	-102.396
57.413	-952.083	-55.5343
98.6071	-419.828	188.744
-161.109	-674.537	-137.142
45.936	-39.1983	180.425
41.4654	-30.4803	-27.7794
129.15	793.865	-48.0192
-148.648	-39.9808	121.83
-186.44	-643.68	115.614
114.389	875.685	40.3428
169.375	750.483	-18.3385
14.4588	664.676	-116.971
-210.036	-717.224	78.8029
-104.588	-761.097	191.692
-109.592	508.09	-92.3992
-182.417	921.481	-137.267
81.3141	-685.62	-51.782
47.1517	-522.646	-138.683
-215.426	926.13	-216.119
-25.7394	-454.639	137.942
208.911	-441.209	-100.673
95.6567	234.132	9.14486
82.3746	76.1219	33.3305
-212.209	621.643	-80.8112
134.111	-404.631	208.764
-200.836	124.807	-126.254
-150.719	-337.754	202.485
-135.564	-57.9902	219.025
30.9636	-547.384	-219.918
-106.828	831.796	-116.304
-65.5846	96.8117	-196.843
-118.878	-849.826	138.238
202.441	-352.332	75.2496
-130.397	235.095	-125.056
182.873	349.852	82.0053
-107.784	-358.153	95.0629
27.4819	104.152	186.391
-172.754	286.882	-112.447
-29.8745	-778.149	-181.974
-211.719	354.232	-30.2217
5.85898	-621.74	-130.193
-100.679	-494.647	-212.292
-138.294	-278.463	-163.021
216.94	6.51904	209.764
39.5873	968.998	10.3025
63.7217	-359.255	204.872
-111.669	-728.166	-106.882
-204.289	-366.488	-13.35
36.4337	-905.447	76.8709
-162.218	-139.181	-171.202
-21.1624	-467.044	-67.2246
82.1557	420.13	-42.4186
-175.183	455.716	-155.906
176.238	-321.569	15.756
-40.638	578.757	-186.904
-137.101	-374.921	177.067
-122.322	-631.526	200.879
-202.399	-245.062	182.629
201.949	-477.653	-6.07697
-33.1487	587.187	-27.7123
-157.537	-396.613	-159.487
170.876	233.311	52.4632
205.727	-139.577	191.523
37.7217	73.6617	-63.7508
21.8184	171.127	-21.1479
23.6208	-368.196	135.242
-124.709	-918.108	142.227
219.389	-763.662	-96.8664
170.976	-966.475	94.9848
14.9774	575.463	44.4294
-131.506	-927.724	-134.61
-92.858	677.222	25.7077
211.961	877.663	14.388
93.4118	-528.29	-177.564
71.2445	286.854	-148.642
20.1009	-284.858	-94.171
218.512	415.211	101.907
65.942	-265.001	-142.279
-75.5598	-854.22	160.076
102.276	-274.963	-97.549
-51.501	514.361	48.0173
109.271	65.0892	65.2279
-4.77408	294.417	-153.474
184.53	710.551	49.862
184.922	140.811	-30.8286
202.8	271.863	-166.7
-196.791	150.686	62.6448
-46.2667	-659.303	-162.255
-180.955	-749.038	-126.294
-95.0522	-928.075	139.098
85.1924	826.452	210.212
-55.8363	695.84	-12.8186
-118.614	429.641	151.885
157.749	-460.917	181.39
205.492	-224.721	148.707
22.3888	886.488	170.519
11.8162	79.9976	-24.9712
-204.545	-470.501	-73.728
-85.9406	898.687	107.516
-102.034	-772.746	-137.301
95.2237	-723.83	37.7572
-121.378	419.125	-185.791
123.753	89.9703	-19.3266
56.5012	633.499	52.8321
-173.922	-453.247	-177.405
16.1717	88.8561	28.7444
-109.189	-270.098	-103.72
18.3547	-58.3758	-40.2746
-155.369	771.49	148.998
87.5876	-533.359	163.882
176.351	-401.902	-110.947
215.507	-742.381	13.4416
-22.9947	-655.041	-183.075
48.3214	-257.053	-219.952
197.615	-593.492	79.1784
-178.832	-688.811	-13.5403
-52.8653	-395.254	-151.561
-148.546	-40.2099	-49.0957
-122.24	-556.336	32.3691
-145.228	796.354	-167.926
139.385	645.701	217.652
-20.3066	-365.473	57.8021
187.717	-532.729	47.9
-74.2299	-436.919	200.129
12.5167	682.769	211.161
35.5168	-718.026	-78.711
-198.453	87.1496	129.429
111.501	-449.152	-5.68604
-110.549	-641.089	-117.637
-202.875	113.225	-89.1586
198.486	-52.126	-209.245
-122.857	-586.736	-203.444
24.3872	-865.205	-212.878
-93.8798	222.908	182.224
215.204	232.336	-12.1386
90.057	-960.203	126.688
-134.395	183.096	83.0634
171.101	-854.054	-110.506
157.106	733.714	-183.183
-76.1065	-1.08337	192.849
143.235	-657.436	-127.214
-180.487	-190.126	55.4255
89.3107	903.108	-129.471
101.701	786.888	-77.2622
42.1179	-966.064	-18.1763
-214.355	-424.729	-152.943
73.0226	-302.995	-163.897
-156.947	309.64	141.915
124.196	156.095	36.7722
-151.018	44.35	-16.8376
166.494	939.404	13.9963
-89.3205	-185.159	207.573
89.7905	40.2412	167.732
-189.109	432.195	130.577
123.18	282.111	1.55358
147.268	208.027	-29.3007
218.18	-23.1708	-156.453
52.5179	258.685	-120.339
97.0657	-690.113	-186.907
182.546	-798.983	166.029
152.368	827.038	-22.7128
-198.431	18.0737	-130.766
46.5077	79.6228	105.4
209.773	225.524	126.126
76.4404	-690.981	84.6506
-42.1667	-416.672	-178.082
-80.7531	450.801	149.968
150.162	925.492	45.3029
51.7604	-968.512	206.446
210.487	646.725	-147.999
81.4333	-237.789	210.499
134.972	-614.79	-17.925
214.903	928.068	27.8734
-158.336	-381.229	119.991
110.433	362.941	-70.0628
-51.7216	-281.081	6.11363
-36.0172	-536.364	105.247
16.4994	802.574	212.767
166.682	417.053	-42.3546
113.904	351.947	147.764
-114.819	-100.81	211.79
80.1725	152.049	19.7732
186.494	-862.935	198.351
58.5619	14.8218	94.0042
-158.683	261.624	214.207
-88.1331	-659.522	-40.4536
-213.037	-185.016	-127.002
-1.54449	318.848	151.536
39.9743	108.401	-58.4115
42.9253	-578.046	185.158
53.5103	-455.293	-88.5054
9.31363	-164.151	107.976
-205.596	473.928	38.9204
-111.647	-716.908	218.565
-178.463	-272.771	-124.53
144.339	499.382	135.514
-55.7719	-710.665	98.1793
60.2959	530.072	-90.6393
-74.3902	-619.324	105.6
131.22	-820.534	-193.074
-96.1879	687.864	-163.888
39.5495	-855.113	-172.452
-122.088	-495.838	-98.6712
-131.636	-964.844	-45.9008
-182.016	26.0408	181.682
-177.101	631.863	209.745
-111.725	46.8092	110.525
-27.7545	912.497	-137.048
47.4834	887.879	23.1946
-124.678	501.878	196.621
217.426	-233.868	26.3989
44.9842	-707.596	-17.0141
-92.2744	-207.487	-13.7281
129.946	-121.473	-13.5856
-93.1076	171.749	-144.455
23.1539	-13.9811	219.876
-171.613	-425.717	30.1534
133.805	-908.213	75.5738
6.82226	244.99	-161.032
-199.838	703.26	212.568
174.046	775.671	-155.527
49.7452	-451.564	-135.236
48.0099	-151.443	-57.1189
-59.0347	894.082	-146.355
166.278	458.911	36.6497
176.689	524.123	125.906
-110.521	717.2	172.298
-178.115	654.024	-166.907
-206.245	596.607	216.103
-170.337	-944.007	-136.765
62.7698	397.605	165.134
129.635	-65.331	-3.08846
-216.15	-337.67	-16.5451
215.389	304.544	-100.634
-148.688	-24.9072	-199.33
88.0647	-329.01	-48.5433
92.2632	521.182	156.877
199.818	289.65	127.854
-190.466	202.361	3.30933
-174.267	-524.056	155.728
94.9763	-28.5577	184.908
-104.91	-291.217	-197.357
0.0332022	-319.696	-47.7918
156.086	374.492	35.3062
76.3457	386.321	-57.3267
102.931	487.106	113.033
-214.154	-350.522	-141.384
-52.872	-346.706	-143.762
62.4868	795.633	154.192
-134.668	-516.399	-59.5909
-168.603	471.107	163.049
-30.173	-23.1316	-208.529
-219.954	570.649	-156.304
-8.00226	-948.67	94.8742
45.8361	-54.1172	-161.809
-206.516	-715.306	36.5647
70.8612	-456.853	-191.497
36.5148	871.008	-99.4831
-45.6926	390.112	45.1944
-85.914	93.6052	-83.5728
-62.1979	-120.366	-46.9939
55.2861	-963.811	75.3056
63.6507	-519.592	148.798
-146.081	-456.927	98.8775
137.651	-67.0866	161.982
-116.596	-669.025	123.895
51.7659	894.934	109.377
-1.12847	289.493	206.05
-152.078	-141.746	114.655
217.446	892.872	-57.6689
-94.8248	-233.576	206.757
164.713	-559.332	-98.0191
46.6839	-452.274	101.125
-125.943	380.437	198.93
-83.7284	661.428	-147.695
141.769	459.972	137.873
-11.1473	449.85	-114.819
-160.372	-221.095	68.3114
77.8199	965.802	99.2911
-63.0583	-236.182	158.592
172.997	839.724	-62.2888
-195.131	-309.935	-218.206
-98.7366	-883.619	-157.059
182.35	353.391	-44.416
-124.531	-817.577	186.269
-102.087	930.674	-168.668
61.9364	169.236	180.84
-87.0647	235.157	214.682
180.159	624.768	-51.1475
-137.957	37.3899	133.224
16.7701	881.099	26.2062
-196.77	294.021	204.228
-86.1346	513.678	-63.5214
99.2969	-913.268	33.9806
-68.6772	-201.476	40.4252
208.115	-286.299	-178.471
59.7057	595.394	-189.141
-57.8543	572.578	-128.131
56.5989	-949.16	43.5217
2.87571	-651.065	119.441
-39.2197	83.5384	201.115
-59.0134	-848.159	2.10155
-51.309	291.312	120.602
-40.8388	-125.392	-147.728
-22.8058	118.268	-143.272
33.2613	320.183	41.0354
36.3852	361.928	-73.3764
-117.368	805.467	115.864
-217.122	-653.761	157.42
-88.7074	-719.761	126.315
-50.8225	881.814	-102.345
-216.446	72.4495	-133.019
137.122	-75.0372	-150.525
24.0969	-326.69	27.973
-34.1634	241.559	22.8853
84.9144	350.394	-137.782
163.899	-28.2165	-215.129
156.344	745.92	196.007
8.04741	53.0025	-61.3203
197.797	463.956	-150.75
19.6185	849.685	-121.404
138.699	-646.429	173.147
-8.08895	394.779	39.2239
89.2022	430.077	196.579
20.1795	622.2	103.908
190.911	454.75	56.0671
-76.6186	711.331	202.095
182.899	-705.09	-107.485
-62.2038	-908.428	3.00288
-217.65	248.57	-35.4648
174.163	845.78	196.68
146.226	-496.387	120.59
219.918	-378.302	119.949
154.205	864.705	102.972
-162.588	395.964	72.8453
-30.1674	92.9175	-13.3634
-163.054	942.91	65.1444
119.34	-558.836	13.436
123.093	-922.099	-80.1453
-114.661	-924.846	-5.17991
147.166	-921.984	106.215
-46.2133	-724.522	64.9472
-158.181	690.523	-104.141
169.428	-807.964	-58.8039
-19.7039	119.907	123.557
-123.158	451.562	-159.539
4.78814	-884.389	-195.173
96.9309	557.112	-218.94
-218.912	-856.267	-92.1833
52.4581	-524.775	211.798
-175.811	747.604	75.251
-35.3505	763.258	-169.013
-175.826	-105.206	-20.3451
127.67	-244.984	-102.269
-132.153	-633.154	163.805
-125.125	-341.642	-134.937
22.277	-342.162	58.9489
-3.19585	679.26	-38.2898
216.147	341.562	-78.8791
-188.333	416.443	-197.714
28.3384	4.66036	79.511
-0.967964	807.461	62.2432
107.181	577.71	124.981
211.672	725.705	158.041
161.774	882.311	-53.9511
199.073	-581.34	-165.767
69.0376	-97.4003	-58.1856
84.4801	245.099	183.498
196.754	-292.249	144.723
176.023	161.893	-51.7459
-67.0495	572.588	-172.089
36.4435	882.131	-211.235
25.836	-576.497	-170.102
-69.8349	-84.3634	-214.428
-168.121	348.184	-83.9557
-11.8269	-319.493	74.509
-217.939	6.56587	32.1607
-170.746	-619.1	-33.5251
98.8116	-752.724	-135.124
25.3951	-764.171	45.2498
-136.768	-667.822	-16.2238
-91.6668	-198.581	-154.504
81.0473	-841.45	-54.0958
115.814	952.463	204.952
46.4144	239.513	66.0258
-78.3486	34.2498	82.5804
160.94	905.361	155.792
-36.8902	-895.3	-214.16
5.36427	-166.684	57.1723
-5.0619	414.672	115.525
-218.429	-236.136	-155.451
-28.3793	-111.634	-10.7564
-189.908	-396.586	211.845
49.1849	-251.069	-181.349
-200.933	-419.6	-65.2323
-189.849	-576.022	143.22
-89.5088	-826.749	172.099
-208.442	664.024	-43.1187
-144.262	42.5649	-109.009
117.935	-504.753	48.8923
-219.526	951.814	192.649
115.264	-341.232	60.0828
-94.753	-483.06	96.6882
-22.3082	-179.326	-201
121.718	826.035	119.081
11.9492	80.9097	-92.8783
128.489	738.6	147.376
145.007	774.05	44.1754
124.409	951.716	43.9641
189.862	-356.161	-82.5694
76.5166	966.693	216.677
199.511	-181.333	-205.626
195.879	552.302	-80.5248
-28.3336	-357.486	87.22
-54.5838	-280.991	115.744
-166.319	-804.733	116.531
-69.3256	-793.307	215.649
-201.752	-870.096	182.911
-70.5134	-511.596	143.598
-35.4887	-251.139	47.4119
38.3632	639.658	-54.4038
137.423	712.238	204.305
-92.6673	843.842	191.117
95.9609	-302.621	-129.814
58.0224	-663.113	119.545
-198.624	679.455	117.658
-214.524	750.533	69.3936
206.539	-391.032	11.8486
52.0961	-897.755	173.328
104.227	-772.572	204.91
-76.8473	547.183	-217.05
78.9632	685.936	65.9556
94.9903	-799.039	-161.875
-40.6871	427.388	53.9372
-141.759	304.319	-156.992
-207.668	-32.51	-143.113
-175.934	686.417	-130.347
-172.119	-927.829	-35.8868
-216.803	790.857	-54.0318
77.3724	-754.56	80.5854
-2.72802	406.672	72.333
-218.48	631.574	32.3175
-215.256	-77.6527	-13.6268
66.7395	27.8452	16.5487
-70.8254	-906.187	-192.28
190.193	-108.459	134.107
-134.609	909.899	-205.456
11.8286	93.6907	-140.497
-73.6773	-675.874	-76.1717
80.5351	235.976	219.734
0.537372	387.088	-32.5897
-78.3615	-799.769	-122.528
-83.0372	774.366	28.1059
-82.5691	-853.114	73.8368
18.9424	-276.186	109.059
43.5817	392.301	-219.415
83.6138	-236.111	-188.277
-14.6397	-757.553	-91.5612
-138.449	-740.168	-211.14
-124.618	112.62	-88.911
135.71	355.391	-114.746
-143.082	-844.216	-59.3343
-210.906	-214.086	-23.9891
-217.013	-475.753	-121.83
149.722	-761.569	96.6579
-25.8481	-838.28	70.9306
43.4086	-479.16	61.8914
135.051	-378.452	-211.951
-164.052	-728.472	210.341
-47.5172	695.404	-132.229
-4.91539	-163.44	-19.1354
97.3908	-872.265	203.155
-23.8617	677.874	-72.7879
179.682	491.551	-70.4728
-77.9588	747.518	208.217
67.4214	-474.884	33.8616
-133.909	668.581	-33.5788
-22.0395	4.88781	159.029
-39.1504	757.798	151.846
-46.0463	367.207	-213.471
80.6787	-550.291	-136.373
-77.6806	189.218	168.996
-45.398	-717.445	188.08
-190.661	906.607	77.0004
131.19	18.5205	121.368
93.8984	743.752	-116.858
83.4194	102.275	208.212
186.462	-522.479	11.6673
-150.275	824.064	-89.9807
-205.642	487.679	211.455
13.1895	-561.017	14.7807
-149.6	-599.599	-175.566
173.734	-223.84	141.071
-148.675	-437.781	-200.892
-41.641	-204.808	158.722
-178.967	-100.923	-173.735
-115.702	641.119	-43.3284
93.1372	782.817	-171.039
-55.6429	438.225	121.065
-174.182	540.009	-28.6708
152.253	-938.95	-136.801
-143.903	-693.894	98.477
66.0362	174.417	-48.5552
39.7167	251.268	107.889
169.864	-259.941	118.88
121.952	-643.86	-23.6704
-21.6964	555.047	2.95208
-178.268	-304.938	-157.884
-67.4904	319.236	-137.327
164.302	16.8269	9.2616
181.344	-37.3667	-35.6131
-121.522	-311.235	-124.589
213.879	-141.619	-81.8738
90.3436	444.191	28.1687
174.856	585.47	-102.389
56.8371	-601.482	-31.2645
79.288	-391.432	185.762
24.7315	815.424	-40.6228
70.7157	723.54	211.715
-134.338	846.766	-73.1674
206.912	484.878	-54.4088
15.6743	-591.655	-93.1196
52.3247	-969.679	-122.153
113.031	551.195	218.809
-16.0188	902.085	153.63
89.2791	729.986	93.5353
-26.4705	163.126	-186.415
16.896	-843.759	-55.9309
-54.2525	-696.471	-11.0315
-130.784	-263.564	130.713
-176.007	260.861	171.308
132.205	922.009	-190.94
-49.4976	-75.5392	133.583
121.282	-607.181	-216.061
202.868	-879.636	105.524
-136.914	323.839	-6.51636
39.4758	960.151	106.303
-218.83	814.123	21.8289
62.9848	769.819	201.736
96.4499	-943.489	-126.314
179.442	-958.202	-103.243
-86.051	-23.4734	41.2108
-215.178	-891.1	-15.9697
-197.557	-557.938	-48.6778
28.435	47.9673	-30.4534
109.058	435.748	148.162
161.79	-203	-130.68
-109.507	276.794	-99.8924
143.768	-425.057	-165.469
16.3365	691.533	-191.885
67.3554	-883.105	-171.004
71.1054	112.844	11.9965
51.042	-197.71	33.2157
109.606	-772.121	-84.8531
100.414	-353.113	141.464
170.566	125.386	84.4201
-151.349	-939.97	-14.3774
-205.211	822.068	-103.73
192.475	-642.973	-187.944
58.2723	-795.081	-147.489
-208.999	-858.955	34.941
-67.0579	-204.031	193.567
-82.7726	907.858	-206.528
-7.76484	-604.211	176.284
205.238	-644.183	-106.778
-75.1673	-699.828	181.102
-130.742	-167.226	52.6218
185.83	966.34	-97.4876
-9.04906	-284.714	152.506
-139.8	-460.125	151.003
110.726	552.918	-114.532
199.213	917.838	55.0175
190.443	447.989	-198.359
200.494	264.801	201.826
-34.3053	832.173	49.7209
-62.042	655.14	-104.642
128.37	-791.026	149.636
-27.8437	53.6249	186.916
-187.287	-732.603	-59.3794
28.8744	-426.319	191.626
169.09	-732.357	-107.07
206.174	-468.826	-133.005
-29.2796	658.409	71.849
67.2192	-304.45	-37.271
75.397	-921.261	-218.688
138.561	597.446	-26.3286
127.113	-917.717	-128.986
-125.567	-738.239	149.531
16.2189	663.422	88.7213
-28.0932	-766.194	154.596
216.212	958.01	159.754
186.596	-188.065	-108.816
209.54	683.461	48.8547
-189.977	-116.145	69.029
9.26876	578.368	-163.068
-21.0933	515.758	63.0547
147.801	41.2361	106.278
127.578	435.826	203.87
-31.8393	55.276	-151.807
-199.783	-791.31	-159.243
-160.908	-149.486	-23.9105
-124.119	-233.025	-164.28
-61.0677	-29.131	-172.613
-19.7774	-754.661	214.997
-212.997	112.033	-56.4389
158.686	-186.439	97.0198
137.886	-809.298	83.4918
-4.14379	-302.481	-74.6512
126.119	958.08	-120.896
-124.685	-517.203	211.93
167.514	882.703	181.136
153.53	109.481	-190.815
-5.32328	-752.32	114.219
219.123	-863.216	-30.8886
-21.6272	-17.8354	-126.757
217.091	-116.157	213.557
-8.85132	779.945	-51.68
-203.417	484.217	-208.397
-41.6987	876.179	-14.1139
114.114	459.415	-76.6786
130.518	289.471	-92.7202
-105.836	-573.323	217.886
-127.378	-481.971	-198.978
191.891	-281.781	-219.795
217.881	-190.584	-128.658
35.4247	187.412	-152.965
-12.0649	367.544	117.985
170.908	-888.887	149.21
79.9516	268.698	-0.687319
148.303	-189.824	47.6152
12.4577	-46.9993	107.989
-155.75	966.254	-204.595
-126.448	5.57108	-83.5018
-20.8635	-404.698	27.0701
-41.913	-745.72	-218.26
-87.5668	-336.689	-122.138
-160.453	122.782	-210.714
170.281	-223.848	-37.4931
93.7854	-187.078	81.9214
30.8529	184.807	-90.4033
179.675	909.023	16.9929
-206.447	-948.772	211.357
-19.0075	724.582	104.241
-190.434	-579.521	35.9155
135.227	764.137	-191.593
175.99	-438.741	117.771
106.08	513.143	54.9213
12.7394	503.102	-60.3909
124.56	-226.615	-195.446
138.514	-195.718	-159.208
193.161	120.23	143.905
207.358	439.496	195.797
195.347	-444.577	-52.6193
-51.8061	-479.861	148.407
70.2578	-626.098	209.126
66.8821	-38.8641	-87.9465
188.565	-319.57	127.772
-175.491	-451.077	-126.205
-218.062	61.4504	-68.5033
-26.4716	-960.101	-155.915
-207.016	855.721	-169.863
-12.7134	-712.68	200.303
41.2359	-889.282	137.363
-155.075	72.7275	3.06703
-168.671	229.398	-19.1989
216.153	879.231	63.0823
142.029	452.413	-176.137
193.125	-14.9323	-5.85874
116.25	-135.818	-211.929
212.622	-604.729	11.1054
-209.184	390.45	219.602
-163.896	-582.91	-200.129
-22.8024	-785.604	-2.03243
167.37	-959.96	40.6766
-113.593	284.969	129.255
99.0018	624.141	215.754
-134.249	-686.81	-126.28
-49.4312	-388.22	-200.581
-130.151	130.367	-186.588
79.3135	67.6193	-200.424
153.132	-604.508	13.857
-135.486	67.9654	-82.8355
-4.22297	-8.10761	194.116
131.837	254.512	26.3424
-132.541	-427.811	60.6887
-124.585	911.41	96.4372
68.0068	461.708	-217.651
53.8326	-851.573	-61.6798
83.3013	-470.53	-218.8
-168.799	-784.963	-86.3816
80.884	705.194	179.639
181.036	-310.131	-111.452
-132.177	658.294	11.6958
190.728	403.187	173.304
-47.9576	-205.625	-103.087
-40.4371	302.928	-69.9075
148.408	-513.303	83.0692
-213.509	481.681	-64.3997
-111.823	611.711	-20.3594
